ply
format ascii 1.0
element vertex 1025
property float32 x
property float32 y
property float32 z
property uchar red
property uchar green
property uchar blue
property uchar alpha
element face 0
property list uint8 int32 vertex_indices
end_header
-0.14296427 -0.18972531 -0.046194166 0 0 0 255
-0.15686952 -0.19035861 -0.031750232 0 0 0 255
-0.14982733 -0.19454598 -0.044371873 0 0 0 255
0.03329529 -0.17741174 0.031607777 0 0 0 255
0.042061888 -0.1777376 0.040261567 0 0 0 255
0.03998174 -0.17874348 0.0493356 0 0 0 255
0.023459032 -0.17961448 0.033675373 0 0 0 255
0.043286808 -0.18139645 0.045199066 0 0 0 255
0.037520226 -0.18250519 0.038239926 0 0 0 255
0.024451908 -0.18410006 0.043078005 0 0 0 255
0.027515486 -0.1848703 0.042986542 0 0 0 255
0.02456595 -0.18510038 0.03873679 0 0 0 255
0.03223508 -0.18617904 0.03411722 0 0 0 255
0.042714134 -0.18618494 0.041010648 0 0 0 255
0.028547436 -0.18881086 0.033195436 0 0 0 255
0.023350958 -0.18981594 0.0365161 0 0 0 255
0.029773727 -0.19005796 0.044686794 0 0 0 255
0.03036679 -0.19155249 0.03109163 0 0 0 255
0.03338226 -0.19704506 0.03395608 0 0 0 255
-0.007754584 -0.17838731 0.032427967 0 0 0 255
0.0073686587 -0.17868298 0.037427485 0 0 0 255
0.0053443117 -0.17897505 0.031677246 0 0 0 255
-0.005854792 -0.17903075 0.02673012 0 0 0 255
-0.012813877 -0.17926705 0.034412503 0 0 0 255
-0.021268854 -0.17950588 0.02170062 0 0 0 255
-0.013381088 -0.18043709 0.028398395 0 0 0 255
-0.0068427213 -0.1818819 0.021421403 0 0 0 255
0.008644762 -0.18217275 0.025132656 0 0 0 255
0.004043727 -0.18316686 0.02951938 0 0 0 255
0.011164122 -0.18369323 0.03263566 0 0 0 255
-0.016109932 -0.18455788 0.02390182 0 0 0 255
0.0051488588 -0.185195 0.039699137 0 0 0 255
-0.0012694029 -0.1877785 0.026462048 0 0 0 255
0.0062214555 -0.18839285 0.03234276 0 0 0 255
-0.010128627 -0.19100595 0.03307247 0 0 0 255
-0.013959141 -0.19118002 0.027850658 0 0 0 255
0.0040721307 -0.19265062 0.028442532 0 0 0 255
-0.007478073 -0.19289374 0.020926952 0 0 0 255
-0.011537043 -0.19411817 0.022060275 0 0 0 255
-0.0056194095 -0.19705757 0.027553618 0 0 0 255
-0.012699539 -0.1972858 0.035796553 0 0 0 255
-0.0074982187 -0.19778657 0.033435255 0 0 0 255
-0.09438938 -0.17839113 0.0097385645 0 0 0 255
-0.10598607 -0.18200159 0.015225977 0 0 0 255
-0.10272574 -0.18574524 0.006864667 0 0 0 255
-0.108138636 -0.18762106 0.0019420981 0 0 0 255
-0.09784482 -0.18961525 0.014680892 0 0 0 255
-0.08631175 -0.19359028 0.017702937 0 0 0 255
-0.09252723 -0.19456682 0.020719975 0 0 0 255
-0.091665655 -0.1951479 0.019815892 0 0 0 255
0.1756239 -0.17913297 -0.028398424 0 0 0 255
0.16312537 -0.17935571 -0.040448815 0 0 0 255
0.18546434 -0.18090135 -0.03481099 0 0 0 255
0.16818243 -0.18758053 -0.04293844 0 0 0 255
0.16442025 -0.18926537 -0.030799478 0 0 0 255
0.1669106 -0.18973547 -0.04110673 0 0 0 255
0.16705336 -0.19101411 -0.040715724 0 0 0 255
-0.120217495 -0.18053159 -0.019836038 0 0 0 255
-0.11941492 -0.18245146 -0.014054179 0 0 0 255
-0.114974275 -0.18250051 -0.0029444993 0 0 0 255
-0.116214536 -0.18273756 -0.024092168 0 0 0 255
-0.12066683 -0.184091 -0.01668629 0 0 0 255
-0.1193087 -0.18482786 -0.02242282 0 0 0 255
-0.114478864 -0.18703774 -0.014753133 0 0 0 255
-0.13036951 -0.1917429 -0.031782538 0 0 0 255
-0.1232296 -0.19374064 -0.017390698 0 0 0 255
0.13726819 -0.18093747 -0.011242598 0 0 0 255
0.15349424 -0.18626356 -0.020846695 0 0 0 255
0.1376023 -0.18671012 -0.014360309 0 0 0 255
0.14062394 -0.18966237 -0.013907969 0 0 0 255
0.1366354 -0.19064575 -0.015853673 0 0 0 255
0.12168352 -0.1917524 -0.009555697 0 0 0 255
0.13104871 -0.19548771 6.8843365e-06 0 0 0 255
0.14832786 -0.19653624 -0.015687555 0 0 0 255
0.13578068 -0.19711885 -0.0032757223 0 0 0 255
0.15389714 -0.18184546 -0.032531112 0 0 0 255
0.16403902 -0.18390197 -0.04415205 0 0 0 255
0.16602997 -0.18514428 -0.044931322 0 0 0 255
0.14453982 -0.18636173 -0.031923503 0 0 0 255
0.14592753 -0.19638768 -0.032334477 0 0 0 255
0.14633276 -0.19818056 -0.037596792 0 0 0 255
0.14864786 -0.1994259 -0.03535196 0 0 0 255
-0.027388262 -0.18361509 0.018263102 0 0 0 255
-0.030142825 -0.18753904 0.0176723 0 0 0 255
-0.026518075 -0.18971539 0.030709118 0 0 0 255
-0.022941384 -0.19043276 0.024332553 0 0 0 255
-0.03093674 -0.19104573 0.030964613 0 0 0 255
-0.032939486 -0.19173571 0.02703774 0 0 0 255
-0.027188644 -0.19334203 0.019150615 0 0 0 255
-0.015292679 -0.19588897 0.024837732 0 0 0 255
-0.036194265 -0.19684562 0.020552218 0 0 0 255
-0.021067549 -0.2002748 0.02174899 0 0 0 255
0.010316883 -0.18459266 0.0240089 0 0 0 255
0.011143259 -0.18558449 0.03651777 0 0 0 255
0.013447332 -0.19083679 0.02512616 0 0 0 255
0.01845555 -0.19527039 0.032607734 0 0 0 255
0.007328118 -0.19578946 0.039626807 0 0 0 255
0.0055124974 -0.19812983 0.033545643 0 0 0 255
0.012594585 -0.20005068 0.027289659 0 0 0 255
0.0114039695 -0.20020866 0.03521782 0 0 0 255
0.008777219 -0.20165038 0.028250605 0 0 0 255
-0.06344798 -0.18815613 0.03402683 0 0 0 255
-0.06613636 -0.18861812 0.03463772 0 0 0 255
-0.06727878 -0.19160184 0.021635056 0 0 0 255
-0.052321274 -0.19481456 0.020319045 0 0 0 255
-0.05504492 -0.19721416 0.0229868 0 0 0 255
-0.06083145 -0.19980234 0.022138 0 0 0 255
-0.04881398 -0.20014048 0.031659722 0 0 0 255
-0.07082258 -0.20018715 0.028786957 0 0 0 255
-0.07463036 -0.20093596 0.02439195 0 0 0 255
-0.05265487 -0.20240447 0.027095765 0 0 0 255
-0.06631028 -0.20257133 0.02082923 0 0 0 255
-0.054131135 -0.20303974 0.026196301 0 0 0 255
-0.06346656 -0.20410419 0.02776739 0 0 0 255
-0.0661496 -0.20696938 0.03556359 0 0 0 255
-0.063495606 -0.20815378 0.034122616 0 0 0 255
0.022776935 -0.18940297 0.047257066 0 0 0 255
0.04129364 -0.19032702 0.047355354 0 0 0 255
0.024947673 -0.193858 0.04098615 0 0 0 255
0.040119376 -0.19596389 0.05112791 0 0 0 255
0.023656592 -0.19872981 0.036724687 0 0 0 255
0.024418924 -0.20120722 0.04503131 0 0 0 255
0.0278164 -0.20190161 0.044408172 0 0 0 255
0.02476051 -0.20378986 0.04104173 0 0 0 255
0.022902396 -0.20606092 0.049972653 0 0 0 255
0.04390182 -0.19112962 0.046165764 0 0 0 255
0.043422394 -0.19133008 0.04529977 0 0 0 255
0.05162894 -0.19393471 0.039036155 0 0 0 255
0.048017222 -0.19579157 0.050551116 0 0 0 255
0.04831753 -0.19689146 0.03794375 0 0 0 255
0.057972774 -0.19693792 0.050943285 0 0 0 255
0.042441458 -0.1969758 0.04208374 0 0 0 255
0.050066426 -0.19858727 0.037675828 0 0 0 255
0.0605947 -0.1999102 0.045999825 0 0 0 255
0.043664675 -0.20076782 0.04632005 0 0 0 255
0.037795093 -0.2021448 0.03965664 0 0 0 255
0.057459913 -0.20408133 0.052705765 0 0 0 255
0.05321815 -0.20577863 0.03761986 0 0 0 255
0.043043274 -0.20579556 0.042633474 0 0 0 255
0.04128484 -0.20749304 0.04907009 0 0 0 255
0.044328753 -0.20880502 0.04669088 0 0 0 255
0.043620612 -0.21015143 0.047128588 0 0 0 255
0.12067939 -0.19188595 0.019304186 0 0 0 255
0.113913 -0.19397956 0.026425451 0 0 0 255
0.111301735 -0.19410205 0.02306205 0 0 0 255
0.12638336 -0.1952849 0.018396616 0 0 0 255
0.111313194 -0.19627693 0.023341507 0 0 0 255
0.11792219 -0.20115569 0.0050720274 0 0 0 255
0.12139177 -0.20333269 0.027237773 0 0 0 255
0.11676219 -0.20649987 0.017910242 0 0 0 255
0.120599374 -0.21140367 0.022655815 0 0 0 255
0.16919535 -0.1948002 -0.052039713 0 0 0 255
0.17523658 -0.20013103 -0.04256347 0 0 0 255
0.17866042 -0.20120114 -0.064787894 0 0 0 255
0.18415813 -0.20393154 -0.05685994 0 0 0 255
0.16576289 -0.20456159 -0.045366794 0 0 0 255
0.16507371 -0.20816916 -0.045681447 0 0 0 255
0.16728482 -0.209865 -0.046951562 0 0 0 255
0.17533661 -0.21065855 -0.059771866 0 0 0 255
0.17181449 -0.21409085 -0.050557107 0 0 0 255
0.07462944 -0.19499528 0.05249259 0 0 0 255
0.08127188 -0.19659644 0.04203838 0 0 0 255
0.07329563 -0.19691074 0.035214275 0 0 0 255
0.07709996 -0.19792101 0.048238337 0 0 0 255
0.062162578 -0.20029554 0.04726872 0 0 0 255
0.07684256 -0.20172414 0.04110977 0 0 0 255
0.083339244 -0.20289797 0.040807426 0 0 0 255
0.07113087 -0.20484251 0.038422406 0 0 0 255
0.066414215 -0.20506099 0.05096194 0 0 0 255
0.061788954 -0.20568737 0.044369847 0 0 0 255
0.07524293 -0.20756438 0.04914099 0 0 0 255
0.07749235 -0.20926362 0.04517311 0 0 0 255
0.081097245 -0.21074978 0.04696724 0 0 0 255
0.0749373 -0.21319968 0.052916735 0 0 0 255
-0.17177199 -0.1953235 -0.05407229 0 0 0 255
-0.17034702 -0.1978822 -0.050685436 0 0 0 255
-0.17084876 -0.20035216 -0.053204387 0 0 0 255
-0.17251389 -0.20217508 -0.051517278 0 0 0 255
-0.17992967 -0.2027421 -0.057799786 0 0 0 255
-0.174905 -0.20290068 -0.046927303 0 0 0 255
-0.16777377 -0.20526972 -0.055149347 0 0 0 255
-0.16625622 -0.20764941 -0.048045605 0 0 0 255
-0.1736052 -0.20917785 -0.050549895 0 0 0 255
-0.16473989 -0.21234861 -0.04652533 0 0 0 255
-0.08348657 -0.19637445 0.037164897 0 0 0 255
-0.08266588 -0.20011044 0.031398326 0 0 0 255
-0.098523654 -0.20305395 0.029045582 0 0 0 255
-0.09259449 -0.20395008 0.025566816 0 0 0 255
-0.07458904 -0.20660737 0.025345236 0 0 0 255
-0.080199435 -0.20839232 0.02542007 0 0 0 255
-0.08125658 -0.21316996 0.028408378 0 0 0 255
-0.0836278 -0.21500817 0.0376274 0 0 0 255
-0.009823972 -0.19678429 0.020602107 0 0 0 255
-0.013014262 -0.20062464 0.029097468 0 0 0 255
-0.0067610894 -0.202548 0.02239421 0 0 0 255
0.0044599967 -0.20299104 0.030907094 0 0 0 255
-0.003381176 -0.20376599 0.034130782 0 0 0 255
-0.01578331 -0.20446569 0.026039153 0 0 0 255
-0.027499557 -0.20460597 0.018256545 0 0 0 255
-0.010131259 -0.20764434 0.03619629 0 0 0 255
-0.022710808 -0.20778117 0.02629298 0 0 0 255
-0.0010165004 -0.2080062 0.02744317 0 0 0 255
-0.013806069 -0.21049315 0.02973783 0 0 0 255
-0.0073405146 -0.21282119 0.02277866 0 0 0 255
-0.0053603863 -0.21311375 0.03105694 0 0 0 255
-0.01135343 -0.2136873 0.025187582 0 0 0 255
-0.049958233 -0.19686821 0.01985377 0 0 0 255
-0.0451216 -0.19938743 0.03173405 0 0 0 255
-0.032882858 -0.20042986 0.029095829 0 0 0 255
-0.040179845 -0.20081884 0.02351886 0 0 0 255
-0.047560725 -0.20415431 0.018290281 0 0 0 255
-0.03187823 -0.20522541 0.02087313 0 0 0 255
-0.05628016 -0.20640615 0.02285853 0 0 0 255
-0.0349871 -0.20833153 0.021102011 0 0 0 255
-0.051896837 -0.21022788 0.029419214 0 0 0 255
-0.057422493 -0.21026954 0.024052322 0 0 0 255
-0.04101565 -0.21128362 0.020323068 0 0 0 255
-0.045646187 -0.2119095 0.030280232 0 0 0 255
-0.0474971 -0.21560445 0.016980797 0 0 0 255
-0.05224894 -0.21588776 0.020628035 0 0 0 255
0.10507273 -0.19744542 0.03087899 0 0 0 255
0.09082898 -0.19754028 0.0337148 0 0 0 255
0.08927517 -0.19977447 0.03263849 0 0 0 255
0.10548849 -0.20246339 0.028049946 0 0 0 255
0.09032841 -0.20257324 0.031026691 0 0 0 255
0.100339025 -0.20433 0.041652232 0 0 0 255
0.09370671 -0.20519188 0.040008068 0 0 0 255
0.09529991 -0.20589215 0.037356883 0 0 0 255
0.10375377 -0.20835564 0.04540941 0 0 0 255
0.11369671 -0.2107783 0.03013283 0 0 0 255
0.0946338 -0.21144101 0.028200328 0 0 0 255
0.10366042 -0.21184513 0.031770438 0 0 0 255
0.11187014 -0.21343857 0.024907798 0 0 0 255
0.09764985 -0.21428052 0.036993057 0 0 0 255
-0.09393236 -0.19806081 0.013373405 0 0 0 255
-0.090636924 -0.1986756 0.015836418 0 0 0 255
-0.10539554 -0.19909292 0.01897505 0 0 0 255
-0.09520296 -0.1996845 0.018780619 0 0 0 255
-0.08797042 -0.20356157 0.018414319 0 0 0 255
-0.10232844 -0.2055251 0.009774655 0 0 0 255
-0.107232906 -0.20574364 0.006731838 0 0 0 255
-0.097446546 -0.20978957 0.01684174 0 0 0 255
-0.08970211 -0.21307623 0.015237212 0 0 0 255
-0.09262393 -0.21310377 0.021372586 0 0 0 255
-0.08678279 -0.21484947 0.017215937 0 0 0 255
-0.0916898 -0.21492034 0.021258801 0 0 0 255
-0.13599536 -0.19843695 -0.027672142 0 0 0 255
-0.11994218 -0.20189184 -0.01753521 0 0 0 255
-0.146706 -0.20190915 -0.042416245 0 0 0 255
-0.14711472 -0.20610592 -0.037546724 0 0 0 255
-0.14059994 -0.20917127 -0.027533501 0 0 0 255
-0.12898816 -0.21060985 -0.023998827 0 0 0 255
-0.14047807 -0.21078303 -0.029248506 0 0 0 255
-0.1145003 -0.19978997 0.00048455596 0 0 0 255
-0.114521205 -0.20070031 -0.015985698 0 0 0 255
-0.11469974 -0.20284769 0.0075127184 0 0 0 255
-0.11961001 -0.20316702 -0.010447085 0 0 0 255
-0.11984908 -0.20402434 -0.0138864815 0 0 0 255
-0.11842422 -0.2046647 -0.017149776 0 0 0 255
-0.12044546 -0.20568281 0.011620879 0 0 0 255
-0.113682374 -0.20664692 -0.0094302595 0 0 0 255
-0.114236206 -0.2176781 0.003014207 0 0 0 255
0.1371197 -0.20124596 -0.0069440305 0 0 0 255
0.13793075 -0.20786032 -0.0126007795 0 0 0 255
0.14056589 -0.20852268 -0.010965973 0 0 0 255
0.13532326 -0.20932108 -0.0079732835 0 0 0 255
0.12229064 -0.2108204 -0.008342117 0 0 0 255
0.13015315 -0.21390274 0.006625563 0 0 0 255
0.13589339 -0.21761325 -0.00037419796 0 0 0 255
-0.027849019 -0.2019004 0.030994862 0 0 0 255
-0.030045807 -0.20809683 0.019058466 0 0 0 255
-0.026223782 -0.20863777 0.032640427 0 0 0 255
-0.030837901 -0.20922294 0.032364905 0 0 0 255
-0.036879417 -0.2095379 0.028608978 0 0 0 255
-0.032604683 -0.21202418 0.027745456 0 0 0 255
-0.027170261 -0.21436137 0.019663036 0 0 0 255
-0.014876242 -0.21614933 0.025775969 0 0 0 255
-0.03585389 -0.21712554 0.022230446 0 0 0 255
-0.027782395 -0.21829647 0.034579992 0 0 0 255
-0.03293164 -0.22061631 0.029603511 0 0 0 255
0.005289159 -0.20274884 0.04152617 0 0 0 255
0.010505418 -0.20447543 0.026305258 0 0 0 255
0.011448554 -0.20490795 0.03751591 0 0 0 255
0.0063838745 -0.20724794 0.0353823 0 0 0 255
0.023686767 -0.2089616 0.038819075 0 0 0 255
0.013545661 -0.21019119 0.028430462 0 0 0 255
0.004294566 -0.21169442 0.03197655 0 0 0 255
0.007294924 -0.21186948 0.043171108 0 0 0 255
0.018667746 -0.21462977 0.0349766 0 0 0 255
-0.0071618543 -0.21635786 0.035814404 0 0 0 255
0.0057653664 -0.21642143 0.036789358 0 0 0 255
0.011643571 -0.2167075 0.03779766 0 0 0 255
0.00549068 -0.21826428 0.04608789 0 0 0 255
-0.072518826 -0.20473194 0.021487474 0 0 0 255
-0.069559984 -0.2058742 0.022499263 0 0 0 255
-0.07237725 -0.21236569 0.02856484 0 0 0 255
-0.06748944 -0.21297747 0.021189153 0 0 0 255
-0.070866935 -0.21312955 0.025800645 0 0 0 255
-0.07627157 -0.21614471 0.024691552 0 0 0 255
-0.0710059 -0.22032586 0.02928257 0 0 0 255
-0.06072083 -0.22037783 0.022654265 0 0 0 255
-0.07494375 -0.22080037 0.023262084 0 0 0 255
-0.14385034 -0.20480797 -0.04614857 0 0 0 255
-0.15294133 -0.20917183 -0.039681226 0 0 0 255
-0.1476047 -0.20953098 -0.04832378 0 0 0 255
-0.14882825 -0.21027544 -0.05176899 0 0 0 255
-0.15702577 -0.21290463 -0.054181963 0 0 0 255
-0.14478645 -0.21590742 -0.05214855 0 0 0 255
-0.15025668 -0.21896106 -0.046780378 0 0 0 255
0.03239485 -0.20597717 0.035462618 0 0 0 255
0.030102864 -0.20823023 0.047014832 0 0 0 255
0.02865905 -0.20827705 0.035821468 0 0 0 255
0.03053815 -0.21020484 0.03521347 0 0 0 255
0.025054913 -0.21240422 0.044000357 0 0 0 255
0.040326953 -0.21420255 0.051554203 0 0 0 255
0.042821024 -0.216214 0.043905944 0 0 0 255
0.048491668 -0.21673518 0.03962311 0 0 0 255
0.03348919 -0.21690544 0.035835743 0 0 0 255
0.023852468 -0.21774474 0.039765656 0 0 0 255
0.024393052 -0.21850619 0.046763122 0 0 0 255
0.02819356 -0.21990922 0.04473427 0 0 0 255
0.038070366 -0.22181779 0.0410766 0 0 0 255
0.024966352 -0.22217265 0.043801963 0 0 0 255
0.1561534 -0.20720908 -0.03782931 0 0 0 255
0.14450459 -0.20822245 -0.02910021 0 0 0 255
0.15483083 -0.2091411 -0.022335976 0 0 0 255
0.1671732 -0.21536082 -0.038358003 0 0 0 255
0.14789526 -0.21933877 -0.035517305 0 0 0 255
0.14709084 -0.2200194 -0.038233668 0 0 0 255
0.14835292 -0.220889 -0.03137502 0 0 0 255
0.06863575 -0.20782083 0.037066758 0 0 0 255
0.08382273 -0.20874417 0.036422014 0 0 0 255
0.07002754 -0.20963994 0.036862403 0 0 0 255
0.057167716 -0.21055043 0.04341668 0 0 0 255
0.06341227 -0.21107051 0.04506898 0 0 0 255
0.051830634 -0.21392831 0.0399144 0 0 0 255
0.058076568 -0.21472198 0.051753104 0 0 0 255
0.063117556 -0.21599856 0.042445183 0 0 0 255
0.08204109 -0.2168689 0.04200536 0 0 0 255
0.06096252 -0.21693236 0.04741946 0 0 0 255
0.073563725 -0.21756825 0.03570354 0 0 0 255
0.062399864 -0.21943143 0.048645556 0 0 0 255
0.07730082 -0.22191769 0.041606873 0 0 0 255
0.07140999 -0.22524774 0.038860798 0 0 0 255
0.09300571 -0.20805588 0.047234505 0 0 0 255
0.08505254 -0.2153101 0.050023943 0 0 0 255
0.09117636 -0.21807784 0.034172416 0 0 0 255
0.09374743 -0.22268221 0.041764587 0 0 0 255
0.08398347 -0.22301048 0.041008174 0 0 0 255
0.10070182 -0.22403687 0.042612523 0 0 0 255
0.096079275 -0.22449118 0.037269294 0 0 0 255
0.093439564 -0.2268655 0.04723236 0 0 0 255
0.12600078 -0.21201539 0.024470448 0 0 0 255
0.112173215 -0.21624056 0.021525502 0 0 0 255
0.1171917 -0.21717906 0.010576963 0 0 0 255
0.11192954 -0.21794114 0.0229097 0 0 0 255
0.11795363 -0.2221272 0.017185926 0 0 0 255
0.12166515 -0.22293523 0.029166073 0 0 0 255
0.11713463 -0.22784185 0.018468738 0 0 0 255
0.12616183 -0.23037174 0.027804703 0 0 0 255
-0.012530878 -0.21467471 0.0380978 0 0 0 255
-0.009663864 -0.21706265 0.022450805 0 0 0 255
-0.012738274 -0.22011432 0.031209052 0 0 0 255
-0.020845965 -0.22068691 0.022746295 0 0 0 255
0.004816712 -0.2223453 0.033230245 0 0 0 255
-0.006638853 -0.22249871 0.024774015 0 0 0 255
-0.010076047 -0.22316492 0.040653408 0 0 0 255
-0.01548082 -0.22383013 0.029111266 0 0 0 255
-0.02250003 -0.22551906 0.02781558 0 0 0 255
-0.0007854188 -0.22754085 0.02982989 0 0 0 255
-0.025971558 -0.22791135 0.034123868 0 0 0 255
-0.005105997 -0.2294513 0.03410697 0 0 0 255
-0.013652639 -0.22983962 0.031629086 0 0 0 255
-0.012254902 -0.23063743 0.042216092 0 0 0 255
-0.12272358 -0.2147792 -0.0146662295 0 0 0 255
-0.11358205 -0.21985134 -0.010735005 0 0 0 255
-0.11889516 -0.22105598 -0.010982454 0 0 0 255
-0.11891377 -0.22312808 -0.006586492 0 0 0 255
-0.119122356 -0.22320989 -0.009526074 0 0 0 255
-0.1175416 -0.22430143 -0.011899829 0 0 0 255
-0.11288715 -0.22602212 -0.004129499 0 0 0 255
-0.12863772 -0.23169705 -0.021456331 0 0 0 255
0.048440825 -0.21506396 0.051051766 0 0 0 255
0.050272353 -0.21838954 0.039471716 0 0 0 255
0.043961935 -0.21991006 0.047912538 0 0 0 255
0.057677694 -0.22198024 0.053587854 0 0 0 255
0.041322514 -0.22523057 0.050119966 0 0 0 255
0.062329113 -0.22540998 0.04526052 0 0 0 255
0.04464018 -0.22568312 0.04833731 0 0 0 255
0.04349699 -0.22593096 0.043322176 0 0 0 255
0.05339864 -0.22610945 0.038565338 0 0 0 255
0.04382474 -0.22932106 0.04850802 0 0 0 255
0.057517 -0.23042548 0.044368684 0 0 0 255
0.04046499 -0.23147297 0.05335173 0 0 0 255
0.05815623 -0.2324222 0.05279824 0 0 0 255
0.048817497 -0.23380294 0.05246827 0 0 0 255
-0.10502786 -0.21669888 0.02179262 0 0 0 255
-0.09368329 -0.2183421 0.015582353 0 0 0 255
-0.09064025 -0.21926814 0.017222226 0 0 0 255
-0.094809875 -0.21960801 0.020667702 0 0 0 255
-0.09897716 -0.22191042 0.029499978 0 0 0 255
-0.11416736 -0.2223708 0.011095107 0 0 0 255
-0.10622016 -0.22339743 0.011955082 0 0 0 255
-0.12060807 -0.22410369 0.013496697 0 0 0 255
-0.08802255 -0.22431257 0.019389212 0 0 0 255
-0.092358604 -0.22435713 0.026285142 0 0 0 255
-0.10185555 -0.22499174 0.01314947 0 0 0 255
-0.09693814 -0.22941804 0.019940168 0 0 0 255
-0.10466072 -0.23423818 0.024603248 0 0 0 255
0.10577188 -0.21784997 0.03110364 0 0 0 255
0.08986236 -0.22112799 0.032007158 0 0 0 255
0.09067926 -0.22321397 0.031941473 0 0 0 255
0.10638913 -0.2238749 0.027383447 0 0 0 255
0.113388985 -0.22710493 0.034280807 0 0 0 255
0.10438363 -0.22790682 0.04594809 0 0 0 255
0.104277276 -0.23205101 0.032708526 0 0 0 255
0.09488355 -0.23217243 0.029186696 0 0 0 255
0.09816133 -0.23471552 0.037516117 0 0 0 255
0.112407565 -0.2349824 0.024509043 0 0 0 255
-0.05008496 -0.21816444 0.019839287 0 0 0 255
-0.054756187 -0.21824273 0.02252242 0 0 0 255
-0.044963088 -0.21893835 0.032759607 0 0 0 255
-0.04003902 -0.21895522 0.024605423 0 0 0 255
-0.04885291 -0.21898997 0.032146066 0 0 0 255
-0.06350812 -0.22164285 0.030022293 0 0 0 255
-0.05235582 -0.22299907 0.02733928 0 0 0 255
-0.066772014 -0.22412652 0.019885093 0 0 0 255
-0.04763933 -0.22549373 0.018337727 0 0 0 255
-0.05600626 -0.22738585 0.023122787 0 0 0 255
-0.045476627 -0.22799692 0.03431815 0 0 0 255
-0.03459747 -0.22850746 0.022522181 0 0 0 255
-0.05743869 -0.22917813 0.024263531 0 0 0 255
-0.052012276 -0.23044875 0.029928029 0 0 0 255
-0.040852796 -0.23201704 0.020857215 0 0 0 255
-0.05214051 -0.2367965 0.021414608 0 0 0 255
-0.047838993 -0.23743287 0.016075224 0 0 0 255
0.17143935 -0.21866873 -0.050655812 0 0 0 255
0.17107995 -0.21891314 -0.05310133 0 0 0 255
0.17365412 -0.2238394 -0.06327084 0 0 0 255
0.17767935 -0.2273975 -0.04944274 0 0 0 255
0.16679221 -0.22780475 -0.045113355 0 0 0 255
0.16509093 -0.22995284 -0.042141646 0 0 0 255
0.18171819 -0.23253262 -0.04266742 0 0 0 255
0.16916892 -0.23638096 -0.051689595 0 0 0 255
0.012796349 -0.21927643 0.030047268 0 0 0 255
0.00887866 -0.22051588 0.03229648 0 0 0 255
0.011801415 -0.22274503 0.04078594 0 0 0 255
0.010719626 -0.22381756 0.029524416 0 0 0 255
0.0065447288 -0.22600263 0.038413495 0 0 0 255
0.028833922 -0.22820443 0.03750792 0 0 0 255
0.024068974 -0.22833353 0.040653914 0 0 0 255
0.0072495295 -0.22964355 0.04447168 0 0 0 255
0.013646859 -0.22971427 0.031259894 0 0 0 255
0.00457218 -0.23113039 0.03456399 0 0 0 255
0.011869456 -0.23281726 0.04081574 0 0 0 255
0.018879537 -0.23395577 0.03734219 0 0 0 255
0.0059337197 -0.23559293 0.03865981 0 0 0 255
0.012949384 -0.23906192 0.03188315 0 0 0 255
-0.08279414 -0.22028437 0.031515718 0 0 0 255
-0.07249692 -0.22579736 0.0217942 0 0 0 255
-0.06639402 -0.22640836 0.035126418 0 0 0 255
-0.06985093 -0.22740117 0.022012264 0 0 0 255
-0.07442174 -0.22786582 0.024408877 0 0 0 255
-0.080318846 -0.2296401 0.024515957 0 0 0 255
-0.08121192 -0.23037499 0.03111285 0 0 0 255
-0.09298064 -0.2328451 0.020718932 0 0 0 255
-0.07212844 -0.2329694 0.028809518 0 0 0 255
-0.083956085 -0.23443958 0.03718826 0 0 0 255
-0.09182505 -0.23506787 0.022250175 0 0 0 255
-0.076048456 -0.23710024 0.02495268 0 0 0 255
-0.1732453 -0.22119704 -0.058800906 0 0 0 255
-0.17051437 -0.22370896 -0.060646147 0 0 0 255
-0.17240015 -0.22686812 -0.060066134 0 0 0 255
-0.17485197 -0.2277272 -0.06318906 0 0 0 255
-0.1790889 -0.23105666 -0.05660698 0 0 0 255
-0.17145044 -0.234756 -0.0667648 0 0 0 255
-0.16782825 -0.23518267 -0.056519598 0 0 0 255
-0.17587858 -0.23761776 -0.06050816 0 0 0 255
-0.16721548 -0.23822331 -0.052699655 0 0 0 255
-0.13711539 -0.22124946 -0.030225664 0 0 0 255
-0.14763848 -0.22684944 -0.04573545 0 0 0 255
-0.13959165 -0.228111 -0.024338812 0 0 0 255
-0.13976978 -0.22922927 -0.022438854 0 0 0 255
-0.14907967 -0.23132765 -0.041926354 0 0 0 255
-0.13658406 -0.23883203 -0.027769476 0 0 0 255
-0.13618936 -0.23934224 -0.025385827 0 0 0 255
0.13714527 -0.22192535 -0.0035791397 0 0 0 255
0.14040038 -0.22700271 -0.0075740516 0 0 0 255
0.13400382 -0.22756138 -0.00012889504 0 0 0 255
0.13751905 -0.22778636 -0.008487701 0 0 0 255
0.12244512 -0.22863609 -0.005328387 0 0 0 255
0.12990505 -0.23323083 0.010893494 0 0 0 255
0.13608201 -0.2383526 0.0020678043 0 0 0 255
0.023047186 -0.2236959 0.051317215 0 0 0 255
0.0325477 -0.22612983 0.036356866 0 0 0 255
0.03044752 -0.22705299 0.04844168 0 0 0 255
0.030728329 -0.23011577 0.03702119 0 0 0 255
0.025225054 -0.23112127 0.046538383 0 0 0 255
0.024367101 -0.23583847 0.048499227 0 0 0 255
0.02851222 -0.23730505 0.045960724 0 0 0 255
0.024183575 -0.23747241 0.041398197 0 0 0 255
0.023171976 -0.24027053 0.05402413 0 0 0 255
0.02514964 -0.24116904 0.045651644 0 0 0 255
0.066864796 -0.22407398 0.051922023 0 0 0 255
0.07781442 -0.22599676 0.04704547 0 0 0 255
0.075493515 -0.22601989 0.049298942 0 0 0 255
0.06887611 -0.22801188 0.03828731 0 0 0 255
0.0703264 -0.23010623 0.037754834 0 0 0 255
0.08144719 -0.23061371 0.04745376 0 0 0 255
0.06390667 -0.23082101 0.04573068 0 0 0 255
0.07524597 -0.23150408 0.053351283 0 0 0 255
0.061235525 -0.23345071 0.04950854 0 0 0 255
0.063764386 -0.23674107 0.042208016 0 0 0 255
0.057815462 -0.23921731 0.055381894 0 0 0 255
0.062682636 -0.23927972 0.049127042 0 0 0 255
0.067234 -0.24250436 0.053791255 0 0 0 255
-0.027551435 -0.22548318 0.01873228 0 0 0 255
-0.031718038 -0.22584409 0.022127151 0 0 0 255
-0.030651342 -0.22675347 0.03468111 0 0 0 255
-0.02999454 -0.22899204 0.01998949 0 0 0 255
-0.03225487 -0.23264313 0.02799061 0 0 0 255
-0.027060902 -0.23467314 0.021585435 0 0 0 255
-0.014485461 -0.23595583 0.027651995 0 0 0 255
-0.035494078 -0.23635092 0.025782436 0 0 0 255
-0.039822873 -0.2364614 0.02658835 0 0 0 255
-0.020614458 -0.24090391 0.024216503 0 0 0 255
-0.06361641 -0.2286363 0.03378725 0 0 0 255
-0.067635484 -0.23425066 0.02122733 0 0 0 255
-0.048709814 -0.2368938 0.034009516 0 0 0 255
-0.06334109 -0.23810565 0.033616185 0 0 0 255
-0.05442399 -0.23891616 0.023006856 0 0 0 255
-0.07490102 -0.23910397 0.024373382 0 0 0 255
-0.071472645 -0.2415472 0.028420627 0 0 0 255
-0.060737003 -0.24184114 0.0217762 0 0 0 255
-0.052047126 -0.24287754 0.02899301 0 0 0 255
-0.06632869 -0.24458593 0.036526263 0 0 0 255
-0.06343003 -0.24797767 0.03527862 0 0 0 255
0.0845395 -0.22965282 0.036200106 0 0 0 255
0.08561355 -0.23476279 0.05054924 0 0 0 255
0.082715355 -0.2370081 0.042448044 0 0 0 255
0.073832355 -0.23832601 0.03620231 0 0 0 255
0.09152496 -0.23874882 0.034645736 0 0 0 255
0.09403196 -0.24130753 0.04219061 0 0 0 255
0.09028633 -0.24210507 0.032319337 0 0 0 255
0.07776028 -0.24221146 0.04211372 0 0 0 255
0.084514305 -0.24294451 0.041684896 0 0 0 255
0.09097663 -0.24366874 0.03332445 0 0 0 255
0.09705611 -0.24403217 0.036326647 0 0 0 255
0.12073447 -0.23132434 0.02507487 0 0 0 255
0.11675613 -0.23399669 0.014707655 0 0 0 255
0.11265054 -0.23756012 0.021868318 0 0 0 255
0.1121922 -0.23841822 0.024785697 0 0 0 255
0.10660421 -0.23862511 0.030868173 0 0 0 255
0.12193887 -0.24257109 0.031098455 0 0 0 255
0.113622844 -0.2453976 0.035694987 0 0 0 255
0.10740536 -0.24572355 0.026265442 0 0 0 255
0.11750761 -0.24928406 0.01903674 0 0 0 255
0.12659684 -0.24965736 0.029784054 0 0 0 255
-0.15462585 -0.23270798 -0.042565793 0 0 0 255
-0.14813341 -0.23424849 -0.051404625 0 0 0 255
-0.14979117 -0.23481613 -0.053414196 0 0 0 255
-0.14500733 -0.2392278 -0.05142948 0 0 0 255
-0.16360387 -0.24060169 -0.048035175 0 0 0 255
-0.1507702 -0.24391744 -0.049636155 0 0 0 255
-0.1636335 -0.2452752 -0.050192446 0 0 0 255
-0.14785035 -0.2504158 -0.04571554 0 0 0 255
-0.15385431 -0.25078896 -0.037285894 0 0 0 255
-0.007202647 -0.23278198 0.024634272 0 0 0 255
-0.0111706965 -0.233156 0.028306395 0 0 0 255
-0.006851252 -0.23525503 0.037742674 0 0 0 255
-0.009473908 -0.2370955 0.024764478 0 0 0 255
-0.012462806 -0.23957056 0.033317864 0 0 0 255
-0.02220809 -0.24183163 0.03110826 0 0 0 255
0.005203205 -0.24193448 0.035085678 0 0 0 255
-0.006530123 -0.2426934 0.026685327 0 0 0 255
-0.015143815 -0.24390921 0.030772865 0 0 0 255
-0.00055474136 -0.24704197 0.03221336 0 0 0 255
-0.00702358 -0.25247103 0.026952624 0 0 0 255
-0.12185729 -0.23451015 -0.009591281 0 0 0 255
-0.113972105 -0.2355662 0.0055438876 0 0 0 255
-0.11810796 -0.24065658 -0.005872041 0 0 0 255
-0.11376914 -0.24133483 -0.009703219 0 0 0 255
-0.11829075 -0.24320921 -0.003206998 0 0 0 255
-0.11916874 -0.24406457 -0.00795126 0 0 0 255
-0.117228344 -0.24509671 -0.009001106 0 0 0 255
-0.11238492 -0.24597299 -0.00026014447 0 0 0 255
-0.12782228 -0.2514758 -0.016560495 0 0 0 255
-0.027715538 -0.23459283 0.038152277 0 0 0 255
-0.044802766 -0.23858893 0.03379792 0 0 0 255
-0.010097514 -0.23998746 0.043308586 0 0 0 255
-0.033163365 -0.2418839 0.028758138 0 0 0 255
-0.030203536 -0.24211031 0.039720744 0 0 0 255
-0.04530675 -0.24395135 0.03833896 0 0 0 255
-0.031557553 -0.24649614 0.023384005 0 0 0 255
-0.025633387 -0.24658242 0.036515832 0 0 0 255
-0.02754029 -0.2496635 0.04304406 0 0 0 255
-0.031960405 -0.2522413 0.030111104 0 0 0 255
0.052051865 -0.2346139 0.03989017 0 0 0 255
0.043264594 -0.23571986 0.045264333 0 0 0 255
0.03361635 -0.23704296 0.037251562 0 0 0 255
0.048763365 -0.23712331 0.04037103 0 0 0 255
0.050541207 -0.23908466 0.039897203 0 0 0 255
0.04442196 -0.23961085 0.048570335 0 0 0 255
0.038304757 -0.24125472 0.04296288 0 0 0 255
0.04128251 -0.24211258 0.05229047 0 0 0 255
0.062870584 -0.24519941 0.04615748 0 0 0 255
0.04395182 -0.24613321 0.04401642 0 0 0 255
0.053653583 -0.24707782 0.038592458 0 0 0 255
0.044029556 -0.24855727 0.049895674 0 0 0 255
0.057867095 -0.25036734 0.045327216 0 0 0 255
-0.08714392 -0.23601916 0.017216772 0 0 0 255
-0.09364082 -0.23938543 0.016378164 0 0 0 255
-0.09054629 -0.23964757 0.019079655 0 0 0 255
-0.09457773 -0.24031705 0.021153003 0 0 0 255
-0.09932793 -0.2405414 0.03041786 0 0 0 255
-0.0829194 -0.24062449 0.031654418 0 0 0 255
-0.10532075 -0.24117085 0.016700089 0 0 0 255
-0.09212168 -0.24483114 0.02700907 0 0 0 255
-0.08807432 -0.24513036 0.020370424 0 0 0 255
-0.10161249 -0.24514735 0.015105486 0 0 0 255
-0.072577946 -0.24750984 0.021171689 0 0 0 255
-0.074213795 -0.249055 0.02395764 0 0 0 255
-0.09659664 -0.2497648 0.02162394 0 0 0 255
-0.08055451 -0.25163072 0.022695214 0 0 0 255
0.1491165 -0.23923045 -0.0123761 0 0 0 255
0.14784935 -0.24171576 -0.026485473 0 0 0 255
0.13734582 -0.24307579 -0.0011363924 0 0 0 255
0.13991296 -0.24439177 -0.0028271675 0 0 0 255
0.13695645 -0.24728352 -0.003919214 0 0 0 255
0.14292744 -0.24843171 -0.017424732 0 0 0 255
0.1554678 -0.24996725 -0.016614616 0 0 0 255
-0.05021011 -0.23962748 0.019844115 0 0 0 255
-0.067231625 -0.24591506 0.018968433 0 0 0 255
-0.047576573 -0.24613339 0.0197981 0 0 0 255
-0.055687673 -0.24792129 0.02433154 0 0 0 255
-0.034210317 -0.24898586 0.023480237 0 0 0 255
-0.052516863 -0.2524256 0.028172225 0 0 0 255
-0.040662944 -0.25258014 0.021867484 0 0 0 255
-0.052031502 -0.25777218 0.022206843 0 0 0 255
-0.048029922 -0.2588835 0.016118258 0 0 0 255
0.009039492 -0.24030444 0.03446102 0 0 0 255
0.012126519 -0.24151716 0.042698383 0 0 0 255
0.010907845 -0.24366689 0.0318169 0 0 0 255
0.006656221 -0.24437705 0.041903377 0 0 0 255
0.0072191367 -0.24523184 0.048445046 0 0 0 255
0.024451178 -0.2477054 0.042488784 0 0 0 255
0.013751191 -0.24945608 0.033619195 0 0 0 255
0.004877665 -0.2507791 0.036679506 0 0 0 255
0.019090928 -0.25324824 0.03970456 0 0 0 255
0.006102423 -0.25479764 0.040534407 0 0 0 255
0.013102724 -0.2588808 0.033722967 0 0 0 255
0.16943738 -0.24093595 -0.04401353 0 0 0 255
0.1647281 -0.24612617 -0.035098583 0 0 0 255
0.1755455 -0.24661073 -0.05956593 0 0 0 255
0.1743247 -0.24699062 -0.061793 0 0 0 255
0.16501467 -0.2514001 -0.038153976 0 0 0 255
0.17907219 -0.2525626 -0.05170396 0 0 0 255
0.15806383 -0.2544382 -0.038580686 0 0 0 255
0.075582474 -0.24368623 0.050585896 0 0 0 255
0.09380071 -0.24544448 0.047696173 0 0 0 255
0.07166417 -0.24548233 0.039770156 0 0 0 255
0.06924805 -0.24879715 0.03858167 0 0 0 255
0.0817593 -0.25027972 0.04840669 0 0 0 255
0.0851624 -0.25041682 0.03645429 0 0 0 255
0.0644021 -0.25063848 0.046397954 0 0 0 255
0.070626214 -0.2506726 0.038658798 0 0 0 255
0.08605998 -0.25365013 0.051985502 0 0 0 255
0.06425448 -0.25704315 0.04291126 0 0 0 255
0.08339159 -0.25724754 0.042900205 0 0 0 255
0.06287651 -0.2579027 0.051423788 0 0 0 255
0.06747817 -0.25989437 0.057002842 0 0 0 255
0.10112153 -0.24416596 0.04313487 0 0 0 255
0.10501589 -0.24759099 0.046503812 0 0 0 255
0.10512449 -0.25287348 0.032729298 0 0 0 255
0.09513366 -0.25297067 0.030179381 0 0 0 255
0.098765716 -0.25552773 0.037589163 0 0 0 255
0.10717486 -0.25896028 0.031578004 0 0 0 255
0.09183177 -0.25924104 0.035588205 0 0 0 255
0.09439744 -0.2604497 0.04219091 0 0 0 255
0.10148658 -0.26408914 0.04412183 0 0 0 255
0.030769203 -0.24491662 0.051222444 0 0 0 255
0.03270883 -0.24607801 0.037719935 0 0 0 255
0.029008798 -0.24813178 0.039194375 0 0 0 255
0.030922998 -0.2503551 0.03837493 0 0 0 255
0.025653068 -0.25092298 0.047204852 0 0 0 255
0.049095485 -0.25120902 0.0556823 0 0 0 255
0.043773163 -0.25554344 0.046163708 0 0 0 255
0.0245606 -0.25748792 0.042565405 0 0 0 255
0.03376401 -0.2575079 0.038208276 0 0 0 255
0.025322344 -0.2605389 0.0470542 0 0 0 255
0.038580634 -0.26097783 0.0443877 0 0 0 255
0.031090274 -0.262747 0.053998977 0 0 0 255
-0.011953493 -0.24606857 0.046770453 0 0 0 255
0.005849174 -0.25018722 0.0533396 0 0 0 255
-0.013632692 -0.2501915 0.032160282 0 0 0 255
-0.010993328 -0.25336778 0.030016929 0 0 0 255
-0.006514587 -0.25384295 0.04012397 0 0 0 255
-0.029496867 -0.25499347 0.0474526 0 0 0 255
-0.014122318 -0.2552081 0.030456275 0 0 0 255
-0.0122190025 -0.2587049 0.035890073 0 0 0 255
-0.081080854 -0.24717987 0.034258336 0 0 0 255
-0.070379324 -0.24999219 0.02016154 0 0 0 255
-0.06289553 -0.25296775 0.038973957 0 0 0 255
-0.084189236 -0.2536722 0.037220746 0 0 0 255
-0.07187807 -0.25367346 0.02906251 0 0 0 255
-0.09218246 -0.25596544 0.02233848 0 0 0 255
-0.087287635 -0.25674334 0.018161893 0 0 0 255
-0.07582366 -0.25815612 0.025222152 0 0 0 255
-0.08285664 -0.26044333 0.032713145 0 0 0 255
-0.08060421 -0.26238418 0.03916785 0 0 0 255
-0.07184222 -0.2626684 0.02804336 0 0 0 255
-0.02994233 -0.24998733 0.020932108 0 0 0 255
-0.027011648 -0.25555688 0.022577345 0 0 0 255
-0.035154827 -0.25656387 0.027455121 0 0 0 255
-0.020373615 -0.26087564 0.026154697 0 0 0 255
-0.033208854 -0.26238662 0.029304832 0 0 0 255
-0.031378567 -0.266892 0.025110126 0 0 0 255
-0.027536385 -0.2670102 0.020648211 0 0 0 255
-0.03381624 -0.26895943 0.025372058 0 0 0 255
0.11671318 -0.25211722 0.017037362 0 0 0 255
0.12978478 -0.25265792 0.014683366 0 0 0 255
0.12151934 -0.2528216 0.024731934 0 0 0 255
0.11276778 -0.25581563 0.025494397 0 0 0 255
0.113029554 -0.2587 0.022683054 0 0 0 255
0.11259773 -0.25951692 0.025755525 0 0 0 255
0.122068524 -0.26194075 0.0033360124 0 0 0 255
0.122431144 -0.2632317 0.031689435 0 0 0 255
0.10831189 -0.26748642 0.02562806 0 0 0 255
0.11637613 -0.26911095 0.020698607 0 0 0 255
0.117881134 -0.27082667 0.01961422 0 0 0 255
-0.11381196 -0.25382 0.007633239 0 0 0 255
-0.12099494 -0.25400686 -0.0045357347 0 0 0 255
-0.105068475 -0.25421214 0.024219394 0 0 0 255
-0.104533784 -0.25911382 0.020973176 0 0 0 255
-0.12093356 -0.26104516 0.017261147 0 0 0 255
-0.11783573 -0.26166537 -0.0036009848 0 0 0 255
-0.1133735 -0.26242176 0.015895694 0 0 0 255
-0.11383056 -0.26262024 -0.00819546 0 0 0 255
-0.11766972 -0.2631901 0.0001629889 0 0 0 255
-0.11921445 -0.26498595 -0.00636819 0 0 0 255
-0.11680207 -0.26557013 -0.0056425333 0 0 0 255
-0.111980565 -0.26607677 0.0031284392 0 0 0 255
-0.101825476 -0.2669817 0.014253169 0 0 0 255
-0.14958484 -0.25412503 -0.041611522 0 0 0 255
-0.14777938 -0.25687483 -0.04975441 0 0 0 255
-0.14996916 -0.25807527 -0.05222103 0 0 0 255
-0.14385882 -0.25950772 -0.045045882 0 0 0 255
-0.1506556 -0.26741078 -0.049168378 0 0 0 255
-0.1529458 -0.26832855 -0.03158298 0 0 0 255
-0.14761846 -0.27183607 -0.033435076 0 0 0 255
-0.14724234 -0.27199137 -0.04191509 0 0 0 255
0.052255683 -0.25484088 0.040795892 0 0 0 255
0.04898673 -0.25728944 0.041588902 0 0 0 255
0.050790295 -0.25961006 0.040794283 0 0 0 255
0.044964682 -0.25967467 0.048767805 0 0 0 255
0.06349467 -0.2653481 0.046599805 0 0 0 255
0.04440778 -0.26640245 0.04471621 0 0 0 255
0.044229165 -0.2675118 0.051740944 0 0 0 255
0.05387211 -0.26787794 0.039093018 0 0 0 255
0.058276348 -0.27067032 0.045832396 0 0 0 255
0.05244118 -0.27450922 0.042619824 0 0 0 255
-0.06778082 -0.25565752 0.021278173 0 0 0 255
-0.05412932 -0.26024553 0.022570968 0 0 0 255
-0.050459534 -0.26184943 0.018946916 0 0 0 255
-0.06070829 -0.26322576 0.021383971 0 0 0 255
-0.051745735 -0.2636227 0.029249072 0 0 0 255
-0.06324244 -0.26738554 0.03677851 0 0 0 255
-0.067597985 -0.26762283 0.018539757 0 0 0 255
-0.05536852 -0.26849023 0.025543064 0 0 0 255
-0.07260574 -0.26909956 0.021030784 0 0 0 255
-0.07403892 -0.2706978 0.02305767 0 0 0 255
-0.07066601 -0.2719696 0.019726545 0 0 0 255
-0.17467049 -0.2556845 -0.07016322 0 0 0 255
-0.17831638 -0.25685093 -0.072286814 0 0 0 255
-0.18312173 -0.2597935 -0.065719396 0 0 0 255
-0.17871861 -0.2600063 -0.08293089 0 0 0 255
-0.16895366 -0.26221064 -0.0625892 0 0 0 255
-0.17433652 -0.2636907 -0.07545182 0 0 0 255
-0.16954328 -0.26442882 -0.058335453 0 0 0 255
-0.17877305 -0.2683869 -0.07322857 0 0 0 255
-0.16436951 -0.26971158 -0.06661388 0 0 0 255
-0.009254575 -0.25683278 0.027537405 0 0 0 255
0.0055589294 -0.26123855 0.03740406 0 0 0 255
-0.006408157 -0.26259392 0.029060394 0 0 0 255
-0.014819159 -0.2636999 0.032900512 0 0 0 255
-0.0003324058 -0.26622298 0.03505668 0 0 0 255
-0.013522487 -0.26999512 0.033613265 0 0 0 255
-0.0068852636 -0.27248183 0.028814137 0 0 0 255
-0.010814609 -0.27328166 0.032192647 0 0 0 255
-0.013746346 -0.27468732 0.032791674 0 0 0 255
-0.09957585 -0.25889692 0.03179282 0 0 0 255
-0.090837926 -0.26124644 0.019092888 0 0 0 255
-0.093803644 -0.2613415 0.015773565 0 0 0 255
-0.094450235 -0.26168352 0.020716429 0 0 0 255
-0.09191973 -0.26566145 0.02727297 0 0 0 255
-0.088286385 -0.26660478 0.020424724 0 0 0 255
-0.09636473 -0.27069098 0.022372901 0 0 0 255
0.07410152 -0.25918418 0.03671056 0 0 0 255
0.07814593 -0.26231992 0.043090105 0 0 0 255
0.09054619 -0.26260546 0.033566594 0 0 0 255
0.085046165 -0.2629456 0.04236719 0 0 0 255
0.09116548 -0.26358482 0.035624653 0 0 0 255
0.07194556 -0.26613766 0.040238023 0 0 0 255
0.081993625 -0.26935026 0.050267845 0 0 0 255
0.069555074 -0.2693857 0.03934759 0 0 0 255
0.06499713 -0.27082703 0.04660541 0 0 0 255
0.08569055 -0.27098602 0.037180364 0 0 0 255
0.07092698 -0.2713391 0.039574325 0 0 0 255
0.012477876 -0.2592711 0.045957744 0 0 0 255
0.009215393 -0.26034892 0.0361574 0 0 0 255
0.011096061 -0.26351625 0.034109414 0 0 0 255
0.0070059663 -0.26410034 0.043053895 0 0 0 255
0.024881098 -0.2673704 0.043861836 0 0 0 255
0.02921589 -0.26835662 0.040416718 0 0 0 255
0.0138625195 -0.26976934 0.0350509 0 0 0 255
0.0051825875 -0.2703944 0.038792253 0 0 0 255
0.026147105 -0.2710963 0.0474118 0 0 0 255
0.019326732 -0.27280217 0.041602194 0 0 0 255
0.006243878 -0.27438438 0.041962177 0 0 0 255
0.13642335 -0.25968188 0.003602624 0 0 0 255
0.14933342 -0.26006693 -0.009806365 0 0 0 255
0.13719447 -0.263084 0.0031275153 0 0 0 255
0.14017417 -0.26400957 -0.0012748241 0 0 0 255
0.13653931 -0.26685813 0.00016465783 0 0 0 255
0.1334184 -0.26718286 0.008022964 0 0 0 255
0.13005629 -0.27279985 0.017078578 0 0 0 255
-0.04412462 -0.27603072 0.038594604 0 0 0 255
-0.034819875 -0.2770739 0.028662145 0 0 0 255
-0.0519219 -0.27881476 0.02300474 0 0 0 255
-0.053792518 -0.28115293 0.023077577 0 0 0 255
-0.033375148 -0.283721 0.028963149 0 0 0 255
-0.05144061 -0.28416267 0.029977977 0 0 0 255
-0.03341969 -0.28863055 0.027726054 0 0 0 255
-0.043376878 -0.29211685 0.044106632 0 0 0 255
0.012836275 -0.27659133 0.049654037 0 0 0 255
0.024984393 -0.27784148 0.043271422 0 0 0 255
0.013280277 -0.2784031 0.03602168 0 0 0 255
0.025484983 -0.2803321 0.048015833 0 0 0 255
0.009391296 -0.28039342 0.037853777 0 0 0 255
0.005945093 -0.28081104 0.039257914 0 0 0 255
0.0073562292 -0.28385705 0.044207186 0 0 0 255
0.011259553 -0.28400636 0.03549066 0 0 0 255
0.025359724 -0.2873786 0.04477787 0 0 0 255
0.005516504 -0.2902895 0.040438622 0 0 0 255
0.013977704 -0.29043514 0.036025137 0 0 0 255
0.013216709 -0.29266065 0.054667443 0 0 0 255
0.019637585 -0.29329073 0.042120278 0 0 0 255
0.006413444 -0.29367226 0.043846995 0 0 0 255
-0.009064777 -0.27684894 0.029849172 0 0 0 255
-0.011913428 -0.2783826 0.037527114 0 0 0 255
-0.020115329 -0.28025663 0.029019147 0 0 0 255
-0.006312661 -0.28308284 0.030507982 0 0 0 255
-0.014482434 -0.2837623 0.03456074 0 0 0 255
-9.4588846e-05 -0.28594404 0.036970526 0 0 0 255
-0.013411589 -0.2898653 0.035074443 0 0 0 255
-0.0066654435 -0.29184908 0.03158933 0 0 0 255
-0.010638587 -0.29379138 0.033437997 0 0 0 255
-0.013371033 -0.29413313 0.035123914 0 0 0 255
0.063093126 -0.27688196 0.053272873 0 0 0 255
0.06466591 -0.27710828 0.044083327 0 0 0 255
0.0678055 -0.2779669 0.059318125 0 0 0 255
0.04930853 -0.27810043 0.041883826 0 0 0 255
0.04542705 -0.2795261 0.04943815 0 0 0 255
0.051082708 -0.28087533 0.040794432 0 0 0 255
0.07860761 -0.28279757 0.043614775 0 0 0 255
0.0720959 -0.28523916 0.042978257 0 0 0 255
0.06420233 -0.28590608 0.046592176 0 0 0 255
0.049698994 -0.28658777 0.06119883 0 0 0 255
0.06986269 -0.2900412 0.0401192 0 0 0 255
0.06539608 -0.2904742 0.04774922 0 0 0 255
0.05874537 -0.29138458 0.04588908 0 0 0 255
0.06335592 -0.29664025 0.054234862 0 0 0 255
-0.092538156 -0.27702945 0.022447288 0 0 0 255
-0.087538235 -0.27789038 0.01865843 0 0 0 255
-0.10429478 -0.27868602 0.022986978 0 0 0 255
-0.07559717 -0.27931246 0.02549991 0 0 0 255
-0.08306867 -0.2814431 0.032442927 0 0 0 255
-0.09421348 -0.2826266 0.021223903 0 0 0 255
-0.09396499 -0.28346488 0.015183121 0 0 0 255
-0.091513276 -0.28426495 0.01728496 0 0 0 255
-0.091751985 -0.28689831 0.027080983 0 0 0 255
-0.08873849 -0.28914762 0.019096464 0 0 0 255
-0.10218763 -0.28960967 0.012487471 0 0 0 255
-0.09624073 -0.29229683 0.022195429 0 0 0 255
0.113188714 -0.27706906 0.026039958 0 0 0 255
0.10774656 -0.27936238 0.03229341 0 0 0 255
0.11340915 -0.27990687 0.023503482 0 0 0 255
0.11307563 -0.2810265 0.02628383 0 0 0 255
0.12307061 -0.2847197 0.03140396 0 0 0 255
0.10899454 -0.2888101 0.02592963 0 0 0 255
0.11816767 -0.29215956 0.020659 0 0 0 255
0.11331099 -0.29677132 0.028849095 0 0 0 255
0.14614569 -0.2771129 -0.027448624 0 0 0 255
0.14999735 -0.2825129 -0.009480596 0 0 0 255
0.14694308 -0.28305215 -0.017222852 0 0 0 255
0.16338001 -0.28627324 -0.023990601 0 0 0 255
0.15253018 -0.28715402 -0.040267617 0 0 0 255
0.15597567 -0.29355744 -0.02459976 0 0 0 255
0.14529519 -0.29427475 -0.021797508 0 0 0 255
-0.06805248 -0.27780426 0.020411462 0 0 0 255
-0.05051845 -0.2833667 0.01945281 0 0 0 255
-0.060508497 -0.28359374 0.022867113 0 0 0 255
-0.072682686 -0.28573835 0.025421321 0 0 0 255
-0.06778063 -0.28886887 0.019051611 0 0 0 255
-0.055069745 -0.28939843 0.026292026 0 0 0 255
-0.07268399 -0.29113 0.020435184 0 0 0 255
-0.07382405 -0.29223797 0.022639662 0 0 0 255
-0.07110971 -0.29478976 0.018397838 0 0 0 255
0.08416805 -0.27788764 0.042902023 0 0 0 255
0.09205322 -0.27917555 0.037445277 0 0 0 255
0.0744252 -0.28045282 0.036769062 0 0 0 255
0.0854636 -0.2827013 0.043519884 0 0 0 255
0.09080634 -0.28313935 0.034816682 0 0 0 255
0.09151855 -0.2844591 0.036566377 0 0 0 255
0.10207764 -0.28553504 0.04333645 0 0 0 255
0.08230745 -0.28918263 0.05124128 0 0 0 255
0.08666096 -0.2897119 0.057097077 0 0 0 255
0.086123124 -0.29131016 0.038374215 0 0 0 255
0.071266726 -0.29243365 0.040048867 0 0 0 255
0.033912025 -0.27803957 0.03917131 0 0 0 255
0.031402085 -0.280169 0.057215452 0 0 0 255
0.038898595 -0.2810373 0.045355916 0 0 0 255
0.03304706 -0.28549844 0.041375816 0 0 0 255
0.04486486 -0.28673863 0.04542154 0 0 0 255
0.044447355 -0.28759417 0.05224821 0 0 0 255
0.02945564 -0.28892925 0.04117915 0 0 0 255
0.026642699 -0.29136997 0.04762709 0 0 0 255
0.031323213 -0.291691 0.04019761 0 0 0 255
0.18057472 -0.27839044 -0.054371208 0 0 0 255
0.195245 -0.28296798 -0.055974633 0 0 0 255
0.17075428 -0.2851979 -0.05141434 0 0 0 255
0.1708826 -0.28532454 -0.043796867 0 0 0 255
0.17583433 -0.28631106 -0.053390592 0 0 0 255
0.18046068 -0.2896693 -0.069612 0 0 0 255
0.18961339 -0.2931971 -0.06287876 0 0 0 255
0.1366888 -0.28076622 0.005596906 0 0 0 255
0.13713 -0.28326103 0.0069226325 0 0 0 255
0.14075755 -0.28475162 -0.0010739565 0 0 0 255
0.13582195 -0.2856754 0.0051676333 0 0 0 255
0.13416138 -0.2890996 0.008374751 0 0 0 255
0.14215273 -0.28952047 -0.009081185 0 0 0 255
0.13085434 -0.2941069 0.017634392 0 0 0 255
-0.14328185 -0.2808789 -0.04103908 0 0 0 255
-0.14885503 -0.285807 -0.03977236 0 0 0 255
-0.15326591 -0.2888617 -0.029928178 0 0 0 255
-0.14612457 -0.29202145 -0.0357773 0 0 0 255
-0.14498411 -0.29552442 -0.03524968 0 0 0 255
-0.14884867 -0.29631162 -0.035410017 0 0 0 255
-0.1458895 -0.29783297 -0.045198947 0 0 0 255
-0.14811178 -0.29984456 -0.041921943 0 0 0 255
-0.17525704 -0.28129637 -0.07267067 0 0 0 255
-0.16924514 -0.28462347 -0.055479616 0 0 0 255
-0.18516396 -0.28505915 -0.06887457 0 0 0 255
-0.18088524 -0.28735828 -0.0872269 0 0 0 255
-0.16963635 -0.28848234 -0.06627515 0 0 0 255
-0.17525646 -0.28934076 -0.07699826 0 0 0 255
-0.17932753 -0.29435253 -0.07551208 0 0 0 255
-0.11351745 -0.28302822 -0.0052931905 0 0 0 255
-0.1171206 -0.28335792 0.003058195 0 0 0 255
-0.11781977 -0.28351226 -0.0027382374 0 0 0 255
-0.11913117 -0.28564012 -0.004319519 0 0 0 255
-0.11626326 -0.28567183 -0.0018298924 0 0 0 255
-0.111965045 -0.28729367 0.004641235 0 0 0 255
-0.1264767 -0.2912968 -0.008231431 0 0 0 255
-0.11949634 -0.29319242 0.004116088 0 0 0 255
-0.027412627 -0.28726304 0.022537291 0 0 0 255
-0.031217638 -0.28759432 0.02637121 0 0 0 255
-0.029651396 -0.290995 0.024680108 0 0 0 255
-0.03134354 -0.29196486 0.033415824 0 0 0 255
-0.04017925 -0.29269075 0.025760084 0 0 0 255
-0.026822433 -0.29656667 0.025966406 0 0 0 255
-0.034484357 -0.29761747 0.02987191 0 0 0 255
-0.019874891 -0.30019495 0.030954093 0 0 0 255
-0.03317383 -0.30305955 0.03134814 0 0 0 255
-0.02711672 -0.30650803 0.025794625 0 0 0 255
0.054091178 -0.28877833 0.039603055 0 0 0 255
0.052626982 -0.29421085 0.04444766 0 0 0 255
0.044924244 -0.2960269 0.04706344 0 0 0 255
0.06499787 -0.29688618 0.04572001 0 0 0 255
0.049581993 -0.29868937 0.042648703 0 0 0 255
0.045890458 -0.29944447 0.050114095 0 0 0 255
0.05131267 -0.30129772 0.042170763 0 0 0 255
-0.047684 -0.28906935 0.02041033 0 0 0 255
-0.05320564 -0.2958465 0.026579827 0 0 0 255
-0.051776946 -0.29960933 0.024273127 0 0 0 255
-0.048184864 -0.30126792 0.01763314 0 0 0 255
-0.05341555 -0.30153808 0.024517179 0 0 0 255
-0.051132534 -0.30444717 0.031175554 0 0 0 255
-0.05051348 -0.30468807 0.020430893 0 0 0 255
0.10666617 -0.2892274 0.045448273 0 0 0 255
0.09556419 -0.2944493 0.0326415 0 0 0 255
0.10671166 -0.29461128 0.033267528 0 0 0 255
0.09961095 -0.29631174 0.039600372 0 0 0 255
0.10778965 -0.29854995 0.03487158 0 0 0 255
0.092231676 -0.29879788 0.03975579 0 0 0 255
0.10255829 -0.30646923 0.043468058 0 0 0 255
-0.07137265 -0.29538286 0.029593587 0 0 0 255
-0.08089829 -0.29580498 0.020061195 0 0 0 255
-0.087572336 -0.2984918 0.02008748 0 0 0 255
-0.08244998 -0.299249 0.03620428 0 0 0 255
-0.068323046 -0.30015162 0.019563705 0 0 0 255
-0.075331405 -0.30025476 0.026250958 0 0 0 255
-0.0604345 -0.30493313 0.022964 0 0 0 255
-0.06814367 -0.31094337 0.018666059 0 0 0 255
-0.07255486 -0.31203347 0.021712244 0 0 0 255
-0.07346304 -0.31266528 0.02408284 0 0 0 255
0.12331265 -0.29692107 0.023181677 0 0 0 255
0.11339134 -0.29992676 0.026172101 0 0 0 255
0.11341162 -0.30201465 0.027729869 0 0 0 255
0.13510096 -0.30425844 0.010151148 0 0 0 255
0.12378526 -0.30677122 0.030698687 0 0 0 255
0.10945164 -0.30959406 0.027161896 0 0 0 255
0.11836697 -0.31323266 0.022166312 0 0 0 255
-0.008904035 -0.2971941 0.03170556 0 0 0 255
-0.011671184 -0.2974166 0.04009098 0 0 0 255
0.006299828 -0.30006498 0.041571558 0 0 0 255
-0.01415862 -0.3035028 0.036684215 0 0 0 255
-0.0062300377 -0.30393285 0.031498164 0 0 0 255
0.00015992206 -0.30630547 0.037964642 0 0 0 255
-0.013167739 -0.30868015 0.03788954 0 0 0 255
-0.006405487 -0.31082782 0.034813464 0 0 0 255
-0.0130259935 -0.312891 0.03837177 0 0 0 255
-0.010460163 -0.31367183 0.035610855 0 0 0 255
0.013505342 -0.29723233 0.039226413 0 0 0 255
0.025316343 -0.29761937 0.044908136 0 0 0 255
