ply
format ascii 1.0
element vertex 1027
property float32 x
property float32 y
property float32 z
property uchar red
property uchar green
property uchar blue
property uchar alpha
element face 0
property list uint8 int32 vertex_indices
end_header
-0.058362436 0.080344915 0.022957832 0 0 0 255
-0.059070557 0.07971708 0.02475667 0 0 0 255
-0.064919725 0.07933185 0.027416497 0 0 0 255
-0.040993106 0.07780612 0.022549748 0 0 0 255
-0.061610706 0.077656955 0.022847772 0 0 0 255
-0.04918842 0.077524215 0.028668225 0 0 0 255
-0.073424265 0.07692488 0.01956433 0 0 0 255
-0.059859827 0.07678179 0.021501958 0 0 0 255
-0.056657337 0.075391434 0.02603224 0 0 0 255
-0.06187162 0.073954634 0.02508071 0 0 0 255
-0.06750986 0.07391829 0.018430531 0 0 0 255
-0.06335621 0.073776364 0.029570997 0 0 0 255
-0.047569863 0.071185276 0.029979438 0 0 0 255
-0.06588941 0.07065318 0.018047392 0 0 0 255
-0.05299444 0.07007038 0.019526511 0 0 0 255
-0.056859065 0.06966256 0.023623407 0 0 0 255
-0.09016302 0.08432149 0.015734643 0 0 0 255
-0.08695406 0.08308112 0.015056223 0 0 0 255
-0.08155562 0.08201199 0.026340902 0 0 0 255
-0.085811116 0.08011166 0.013820469 0 0 0 255
-0.09248738 0.07988087 0.018524796 0 0 0 255
-0.10012464 0.07849671 0.022591472 0 0 0 255
-0.08552711 0.07678574 0.025106728 0 0 0 255
-0.09546429 0.074760795 0.020008594 0 0 0 255
-0.101707846 0.07266977 0.011739433 0 0 0 255
-0.099914394 0.07251182 0.023900598 0 0 0 255
-0.08233044 0.07040838 0.026136488 0 0 0 255
-0.092796676 0.069522254 0.014862716 0 0 0 255
-0.09033829 0.06797054 0.015832037 0 0 0 255
-0.08096388 0.067856535 0.018879712 0 0 0 255
-0.0069374153 0.08380529 0.022976667 0 0 0 255
-0.007590676 0.08088258 0.018673152 0 0 0 255
0.008055908 0.08056251 0.026004344 0 0 0 255
0.0035555447 0.080421835 0.032190174 0 0 0 255
-0.009058541 0.078451276 0.023847729 0 0 0 255
-0.013307923 0.078093976 0.03025937 0 0 0 255
0.007338253 0.07549447 0.03360355 0 0 0 255
0.008763376 0.07506903 0.023084402 0 0 0 255
-0.0085483445 0.07210874 0.02484575 0 0 0 255
-0.0134389205 0.07160122 0.031150788 0 0 0 255
-0.0021632425 0.07153713 0.028423041 0 0 0 255
0.0069616595 0.070714705 0.024280846 0 0 0 255
-0.013677509 0.0705593 0.022218674 0 0 0 255
-0.0046147774 0.069174275 0.028527707 0 0 0 255
-0.0011555096 0.06814592 0.02399394 0 0 0 255
0.0006945273 0.06676375 0.02876699 0 0 0 255
-0.010219588 0.06610226 0.03165084 0 0 0 255
-0.010185499 0.06531915 0.022892058 0 0 0 255
-0.006812592 0.06527825 0.024663448 0 0 0 255
-0.19475158 0.083307855 -0.03108564 0 0 0 255
-0.2063017 0.08124511 -0.028768808 0 0 0 255
-0.19371046 0.081099145 -0.025246471 0 0 0 255
-0.17784837 0.080776386 -0.031424135 0 0 0 255
-0.17739475 0.07835526 -0.03423956 0 0 0 255
-0.1866567 0.077683836 -0.03270015 0 0 0 255
-0.20847005 0.07751282 -0.042474657 0 0 0 255
-0.20911159 0.076240554 -0.038088948 0 0 0 255
-0.19152692 0.07609188 -0.037634343 0 0 0 255
-0.2106792 0.07462173 -0.030799896 0 0 0 255
-0.19130921 0.07388885 -0.03652522 0 0 0 255
-0.18376683 0.07301587 -0.028666526 0 0 0 255
-0.18782924 0.071829736 -0.029004008 0 0 0 255
-0.19959885 0.070099704 -0.03458318 0 0 0 255
-0.19241728 0.06896177 -0.031657666 0 0 0 255
-0.18879278 0.068338156 -0.03126636 0 0 0 255
-0.19067742 0.06531161 -0.028888673 0 0 0 255
-0.19721512 0.06416085 -0.03502825 0 0 0 255
-0.13114086 0.08192947 -0.008867264 0 0 0 255
-0.12997764 0.07925874 -0.009649277 0 0 0 255
-0.14034909 0.07834831 -0.0065837502 0 0 0 255
-0.14391673 0.07659368 -0.009230405 0 0 0 255
-0.14252713 0.07506434 -0.004157603 0 0 0 255
-0.14334927 0.07500092 -0.008609682 0 0 0 255
-0.12790804 0.07437722 0.002264291 0 0 0 255
-0.13795677 0.073910706 -0.0045883656 0 0 0 255
-0.14558238 0.07234478 -0.0063975453 0 0 0 255
-0.13756403 0.068340585 -0.0109885335 0 0 0 255
0.070122465 0.08166844 0.02448392 0 0 0 255
0.07098551 0.08147393 0.03670764 0 0 0 255
0.05825854 0.07963402 0.038308144 0 0 0 255
0.07698793 0.07729436 0.0385983 0 0 0 255
0.05612112 0.07715569 0.035811603 0 0 0 255
0.07197995 0.0731837 0.037481934 0 0 0 255
0.06931488 0.07278243 0.0317145 0 0 0 255
0.0572254 0.072716765 0.030302405 0 0 0 255
0.06447875 0.071504876 0.026609808 0 0 0 255
0.07626837 0.07089494 0.03824559 0 0 0 255
0.070983574 0.07044694 0.03224781 0 0 0 255
0.07549002 0.06974925 0.032897472 0 0 0 255
0.07503766 0.06807984 0.036424577 0 0 0 255
0.06744547 0.066677794 0.03198713 0 0 0 255
0.06569674 0.06657401 0.028992862 0 0 0 255
0.07359855 0.06455303 0.031381786 0 0 0 255
0.07017417 0.06235241 0.026800692 0 0 0 255
0.105138235 0.08148403 0.034484774 0 0 0 255
0.11252927 0.07752019 0.03454414 0 0 0 255
0.087850876 0.07329064 0.03804022 0 0 0 255
0.10451774 0.071827635 0.0229657 0 0 0 255
0.1028155 0.07170326 0.02140382 0 0 0 255
0.110570095 0.07106741 0.025850296 0 0 0 255
0.11320411 0.070605144 0.031126708 0 0 0 255
0.09466504 0.06889262 0.038889945 0 0 0 255
0.10533884 0.06665382 0.026174724 0 0 0 255
0.10477953 0.06662497 0.021827966 0 0 0 255
0.105449244 0.06450292 0.035272747 0 0 0 255
-0.21838231 0.08023119 -0.03164479 0 0 0 255
-0.22351798 0.07770097 -0.047014087 0 0 0 255
-0.23112059 0.07683335 -0.04256329 0 0 0 255
-0.21644036 0.07326585 -0.037710756 0 0 0 255
-0.23053496 0.07218064 -0.044412583 0 0 0 255
-0.22794023 0.070892505 -0.03437808 0 0 0 255
-0.21722715 0.07025467 -0.03435996 0 0 0 255
-0.21010126 0.06678126 -0.042071432 0 0 0 255
-0.213845 0.06531674 -0.04264149 0 0 0 255
-0.16879204 0.07977317 -0.02179268 0 0 0 255
-0.16691485 0.07896734 -0.020179302 0 0 0 255
-0.16202682 0.07817915 -0.0278022 0 0 0 255
-0.16693766 0.07661538 -0.017264187 0 0 0 255
-0.1727956 0.07537668 -0.019687682 0 0 0 255
-0.17407785 0.07170672 -0.023183733 0 0 0 255
-0.1555412 0.07108793 -0.023929387 0 0 0 255
-0.15469855 0.06829837 -0.026397198 0 0 0 255
-0.16325669 0.06787041 -0.020396918 0 0 0 255
-0.16903484 0.06613058 -0.029636353 0 0 0 255
-0.16762547 0.0638848 -0.025869459 0 0 0 255
-0.16582802 0.063753046 -0.01901874 0 0 0 255
-0.16127974 0.06303269 -0.021145135 0 0 0 255
-0.168245 0.060933508 -0.022543937 0 0 0 255
0.13990292 0.078161046 0.008634597 0 0 0 255
0.14141153 0.06876885 -0.0015205741 0 0 0 255
0.15506454 0.06864092 0.006712526 0 0 0 255
0.13342729 0.06738674 0.020817578 0 0 0 255
0.1485713 0.06493887 -0.0022889972 0 0 0 255
0.13733628 0.06469381 0.008028388 0 0 0 255
0.13523841 0.061434336 0.006421536 0 0 0 255
0.14642945 0.0606583 0.0077708364 0 0 0 255
0.14236574 0.06007257 0.004291415 0 0 0 255
0.14101401 0.058456853 0.007817805 0 0 0 255
-0.2557831 0.07686181 -0.05472496 0 0 0 255
-0.237833 0.07293476 -0.048740536 0 0 0 255
-0.24548125 0.06676347 -0.048423737 0 0 0 255
-0.25430188 0.06579657 -0.048481077 0 0 0 255
-0.25698343 0.0645743 -0.047709733 0 0 0 255
-0.26087067 0.061538093 -0.05222848 0 0 0 255
-0.25434405 0.060867727 -0.05063978 0 0 0 255
0.04228462 0.076473184 0.036830664 0 0 0 255
0.054275133 0.072847605 0.03663397 0 0 0 255
0.035072006 0.07236625 0.033691943 0 0 0 255
0.0383167 0.07193565 0.029202253 0 0 0 255
0.0405833 0.07042566 0.0376361 0 0 0 255
0.033184405 0.06981061 0.03038776 0 0 0 255
0.037331916 0.06896934 0.029182613 0 0 0 255
0.059836008 0.0682219 0.03857851 0 0 0 255
0.03764955 0.06750119 0.03577572 0 0 0 255
0.025015809 0.06737353 0.03681302 0 0 0 255
0.030419074 0.06592302 0.027598828 0 0 0 255
0.053980663 0.06459796 0.031555384 0 0 0 255
0.040845446 0.064545706 0.03083092 0 0 0 255
0.037514683 0.064195774 0.036562264 0 0 0 255
0.05375985 0.06347455 0.036469102 0 0 0 255
0.045028985 0.06154415 0.026825398 0 0 0 255
0.05219756 0.06071113 0.03223172 0 0 0 255
0.042597797 0.0591821 0.03904584 0 0 0 255
0.2233061 0.076241 -0.0270122 0 0 0 255
0.22155812 0.07514983 -0.040991336 0 0 0 255
0.21877614 0.073604524 -0.03739479 0 0 0 255
0.20935254 0.07238433 -0.032125622 0 0 0 255
0.22044037 0.07051863 -0.038957685 0 0 0 255
0.21133 0.06598819 -0.023786515 0 0 0 255
0.21961808 0.06418623 -0.01815787 0 0 0 255
0.21228184 0.06350382 -0.0327228 0 0 0 255
0.2327028 0.062035322 -0.034852475 0 0 0 255
0.27057403 0.07553857 -0.04246655 0 0 0 255
0.26847836 0.075403385 -0.049315244 0 0 0 255
0.2665676 0.07339524 -0.050524265 0 0 0 255
0.2672463 0.0712088 -0.044846386 0 0 0 255
0.2571798 0.06396371 -0.041590184 0 0 0 255
0.2814889 0.06256901 -0.045194536 0 0 0 255
0.26806104 0.062333323 -0.040506035 0 0 0 255
0.27811682 0.060370415 -0.05187723 0 0 0 255
-0.23549026 0.075425275 -0.046190053 0 0 0 255
-0.2407506 0.06953093 -0.03581181 0 0 0 255
-0.23219004 0.066308215 -0.04866472 0 0 0 255
-0.22956827 0.06623302 -0.04237452 0 0 0 255
-0.23315784 0.06372919 -0.03655514 0 0 0 255
-0.23800701 0.06316113 -0.042850643 0 0 0 255
-0.23261762 0.05566322 -0.046493143 0 0 0 255
0.17557108 0.07498918 -0.030669779 0 0 0 255
0.17334518 0.07379115 -0.025118858 0 0 0 255
0.19106224 0.073719114 -0.02619794 0 0 0 255
0.18507439 0.07069805 -0.033717602 0 0 0 255
0.17123987 0.070046216 -0.022848457 0 0 0 255
0.16845363 0.06815317 -0.014757037 0 0 0 255
0.18365447 0.06566018 -0.025938243 0 0 0 255
0.18947797 0.065125875 -0.02603063 0 0 0 255
0.17316793 0.064467944 -0.026517898 0 0 0 255
0.1872162 0.061446555 -0.029249102 0 0 0 255
0.18315347 0.06002731 -0.03822884 0 0 0 255
0.011735939 0.07484521 0.025043517 0 0 0 255
0.020574052 0.07227428 0.03425762 0 0 0 255
0.011955342 0.07135446 0.020435452 0 0 0 255
0.004694403 0.06941761 0.03166619 0 0 0 255
0.027854633 0.065976225 0.026435316 0 0 0 255
0.008013482 0.06404355 0.027143568 0 0 0 255
0.0036718817 0.063442 0.03322074 0 0 0 255
0.022872925 0.06341225 0.027366161 0 0 0 255
0.016862046 0.062557854 0.030235708 0 0 0 255
0.0060105855 0.061011747 0.02365622 0 0 0 255
0.01441976 0.060064092 0.02988261 0 0 0 255
0.018346988 0.05886502 0.027147442 0 0 0 255
0.0076122293 0.057900064 0.034380168 0 0 0 255
0.019656438 0.057630643 0.031344324 0 0 0 255
0.011798146 0.05617071 0.025267184 0 0 0 255
0.008927523 0.056133658 0.024778694 0 0 0 255
-0.027962886 0.07455987 0.030859023 0 0 0 255
-0.041649815 0.07224614 0.02526024 0 0 0 255
-0.02706357 0.070966445 0.01825884 0 0 0 255
-0.039935473 0.07070826 0.027065486 0 0 0 255
-0.024922881 0.07011506 0.02346909 0 0 0 255
-0.03128381 0.06879762 0.029584229 0 0 0 255
-0.042442985 0.06853475 0.02617532 0 0 0 255
-0.040174674 0.06741249 0.022706568 0 0 0 255
-0.037378617 0.066149555 0.02714631 0 0 0 255
-0.045420296 0.06548365 0.031820804 0 0 0 255
-0.04348672 0.06498143 0.026148736 0 0 0 255
-0.025179952 0.06384678 0.025385499 0 0 0 255
-0.030435577 0.06290443 0.031325907 0 0 0 255
-0.040821508 0.06188473 0.024062186 0 0 0 255
-0.020851132 0.06171205 0.028390616 0 0 0 255
-0.03321468 0.060542338 0.021945924 0 0 0 255
-0.023400817 0.05943846 0.028511614 0 0 0 255
-0.02048169 0.058022514 0.023423016 0 0 0 255
-0.027740778 0.0569489 0.032129467 0 0 0 255
-0.025334463 0.055741042 0.024773687 0 0 0 255
0.20400421 0.07364598 -0.03468111 0 0 0 255
0.20546792 0.07116854 -0.039922804 0 0 0 255
0.20191114 0.066269025 -0.022345394 0 0 0 255
0.1993383 0.06430793 -0.037756234 0 0 0 255
0.19689791 0.06303783 -0.033900112 0 0 0 255
0.21010773 0.059583724 -0.042363733 0 0 0 255
0.19686858 0.05943285 -0.03317198 0 0 0 255
0.20679675 0.057919726 -0.044148713 0 0 0 255
0.1949596 0.057695426 -0.028785974 0 0 0 255
0.20678067 0.054954268 -0.038475484 0 0 0 255
-0.07532627 0.07187595 0.022046685 0 0 0 255
-0.07798472 0.06986581 0.023249269 0 0 0 255
-0.06723128 0.06822679 0.027990133 0 0 0 255
-0.07943155 0.06662475 0.019458264 0 0 0 255
-0.07572042 0.06553138 0.025527984 0 0 0 255
-0.08143257 0.06431595 0.02762112 0 0 0 255
-0.08726897 0.06393421 0.014786243 0 0 0 255
-0.058435887 0.063840516 0.02483356 0 0 0 255
-0.082230076 0.06378553 0.016302913 0 0 0 255
-0.06478382 0.062328167 0.029186249 0 0 0 255
-0.07318932 0.06101144 0.021814734 0 0 0 255
-0.08586981 0.060581073 0.014679849 0 0 0 255
-0.07288591 0.059915356 0.016802698 0 0 0 255
-0.06147414 0.05873114 0.023697436 0 0 0 255
-0.08568401 0.058718547 0.025841534 0 0 0 255
-0.07557956 0.055132344 0.022968233 0 0 0 255
-0.067576654 0.054856427 0.019145459 0 0 0 255
-0.110331945 0.07099975 0.015203506 0 0 0 255
-0.106781684 0.06990103 0.0064948797 0 0 0 255
-0.11862752 0.06892303 0.005150348 0 0 0 255
-0.12041391 0.06818017 0.011596769 0 0 0 255
-0.121087536 0.06712699 0.007087022 0 0 0 255
-0.1052783 0.06684369 0.018519074 0 0 0 255
-0.12533204 0.066037096 0.0066112876 0 0 0 255
-0.12077706 0.06551147 0.0049196184 0 0 0 255
-0.11552979 0.06462462 0.013655096 0 0 0 255
-0.09293629 0.06296111 0.018730164 0 0 0 255
-0.120997526 0.061716586 0.012241334 0 0 0 255
-0.1003262 0.06112116 0.022922277 0 0 0 255
-0.09761779 0.05983329 0.016835004 0 0 0 255
-0.107277334 0.059088223 0.013569355 0 0 0 255
-0.11388335 0.059077196 0.0072223246 0 0 0 255
-0.10074225 0.05789309 0.013923407 0 0 0 255
-0.099821925 0.056139633 0.012032986 0 0 0 255
-0.11084833 0.053897254 0.015432268 0 0 0 255
-0.102299795 0.053643055 0.010984093 0 0 0 255
-0.1082209 0.053507052 0.007205516 0 0 0 255
-0.14726533 0.07053357 -0.014614314 0 0 0 255
-0.14564934 0.06816604 -0.0095409155 0 0 0 255
-0.15123737 0.06793113 -0.0073682964 0 0 0 255
-0.15378638 0.06251946 -0.019145817 0 0 0 255
-0.1318815 0.061969288 -0.010046065 0 0 0 255
-0.14051029 0.058420405 -0.0076536834 0 0 0 255
-0.14401561 0.05670002 -0.008790523 0 0 0 255
-0.14311486 0.05663912 -0.004704982 0 0 0 255
-0.14618365 0.055006094 -0.0068956017 0 0 0 255
-0.1431921 0.054525316 -0.007899463 0 0 0 255
-0.148051 0.05068688 -0.015284061 0 0 0 255
0.116478726 0.06834992 0.022858858 0 0 0 255
0.108308956 0.062995106 0.022045285 0 0 0 255
0.110164024 0.06235914 0.021692276 0 0 0 255
0.12193835 0.062070735 0.010729581 0 0 0 255
0.12624006 0.061882786 0.016167581 0 0 0 255
0.11327875 0.059799768 0.034357756 0 0 0 255
0.10354332 0.055488557 0.021472394 0 0 0 255
0.11364451 0.05495228 0.024543166 0 0 0 255
0.1257328 0.05373869 0.021456271 0 0 0 255
0.12691411 0.053270906 0.015206367 0 0 0 255
0.1134617 0.052517064 0.032868207 0 0 0 255
0.105660126 0.0518943 0.019781083 0 0 0 255
0.11174871 0.05178918 0.02334869 0 0 0 255
0.11908749 0.050246447 0.016840547 0 0 0 255
0.118367374 0.048890606 0.01907587 0 0 0 255
-0.20137477 0.06730908 -0.043091923 0 0 0 255
-0.18693097 0.06698569 -0.041385263 0 0 0 255
-0.2148424 0.062575705 -0.043951362 0 0 0 255
-0.20764066 0.06186378 -0.039316446 0 0 0 255
-0.20890561 0.061478145 -0.033623606 0 0 0 255
-0.19608535 0.06102016 -0.029291898 0 0 0 255
-0.21115166 0.057418987 -0.04132095 0 0 0 255
-0.18788259 0.05681075 -0.03714183 0 0 0 255
-0.2099842 0.05573693 -0.046079427 0 0 0 255
-0.1928862 0.055202544 -0.04109195 0 0 0 255
-0.21250634 0.054442026 -0.0336549 0 0 0 255
-0.19234163 0.052283086 -0.04015854 0 0 0 255
-0.20141473 0.049102075 -0.037657052 0 0 0 255
0.24640435 0.065758444 -0.03253463 0 0 0 255
0.245029 0.06448164 -0.044156462 0 0 0 255
0.24139556 0.06311484 -0.039364904 0 0 0 255
0.24349079 0.059960775 -0.040031463 0 0 0 255
0.25592723 0.059752062 -0.04526636 0 0 0 255
0.23571227 0.05471406 -0.036019653 0 0 0 255
0.24371746 0.053390056 -0.028317124 0 0 0 255
0.25700834 0.05147697 -0.03898403 0 0 0 255
0.07109201 0.064764835 0.03869185 0 0 0 255
0.08575324 0.06464146 0.028994828 0 0 0 255
0.058461986 0.061919592 0.040001214 0 0 0 255
0.08450016 0.061885677 0.025612801 0 0 0 255
0.07740695 0.059920028 0.039840728 0 0 0 255
0.05669781 0.059719548 0.031350464 0 0 0 255
0.05612918 0.05850754 0.03883508 0 0 0 255
0.086139485 0.0576299 0.032588392 0 0 0 255
0.0695815 0.05726397 0.03366208 0 0 0 255
0.08502092 0.057222165 0.027956039 0 0 0 255
0.057211094 0.056415886 0.032152057 0 0 0 255
0.08816346 0.056352265 0.038578272 0 0 0 255
0.05439017 0.05611772 0.038620472 0 0 0 255
0.07225337 0.054646984 0.03972596 0 0 0 255
0.07659874 0.05291164 0.03850019 0 0 0 255
0.06471308 0.051999845 0.027772278 0 0 0 255
0.071282506 0.051593438 0.03358993 0 0 0 255
0.06018565 0.05087226 0.04030928 0 0 0 255
0.07553636 0.050639525 0.035943 0 0 0 255
0.07521709 0.04940045 0.038469374 0 0 0 255
0.067660466 0.048181087 0.03318295 0 0 0 255
0.07122578 0.04802788 0.040433854 0 0 0 255
0.07378817 0.047969207 0.0317913 0 0 0 255
0.065945856 0.047670007 0.030195296 0 0 0 255
-0.04829766 0.06474573 0.020811945 0 0 0 255
-0.04652173 0.06106033 0.018335164 0 0 0 255
-0.058698572 0.0608633 0.026542455 0 0 0 255
-0.049164623 0.059583478 0.029888332 0 0 0 255
-0.059507497 0.057343118 0.023601204 0 0 0 255
-0.056354523 0.056337297 0.028107345 0 0 0 255
-0.06320054 0.056130856 0.030845106 0 0 0 255
-0.041819043 0.05561042 0.026168078 0 0 0 255
-0.061704684 0.05559934 0.027242035 0 0 0 255
-0.04746563 0.05419068 0.031502336 0 0 0 255
-0.05656799 0.05394823 0.02633822 0 0 0 255
-0.03957223 0.05186952 0.028358996 0 0 0 255
-0.052785244 0.05050824 0.02167353 0 0 0 255
-0.04218683 0.04970265 0.02849555 0 0 0 255
-0.039856847 0.047923125 0.023829132 0 0 0 255
-0.043549567 0.04642608 0.026843965 0 0 0 255
-0.048183434 0.04576794 0.022508979 0 0 0 255
0.09221332 0.06421823 0.032455176 0 0 0 255
0.09462539 0.061866768 0.036264747 0 0 0 255
0.090616025 0.06128046 0.030691504 0 0 0 255
0.0960986 0.06030164 0.02873826 0 0 0 255
0.095103756 0.058831334 0.032633334 0 0 0 255
0.09083235 0.05550058 0.027407825 0 0 0 255
0.08989625 0.05273632 0.026615351 0 0 0 255
0.095329344 0.05124543 0.03869319 0 0 0 255
0.08654283 0.048457757 0.028318584 0 0 0 255
0.093460254 0.045254596 0.03034845 0 0 0 255
-0.008856466 0.062382855 0.02414772 0 0 0 255
-0.007500761 0.06143014 0.02002266 0 0 0 255
-0.013169743 0.06021206 0.031970024 0 0 0 255
-0.018160746 0.0569446 0.028747708 0 0 0 255
-0.008633806 0.055456214 0.025755882 0 0 0 255
0.00722685 0.054642566 0.024827302 0 0 0 255
-0.013332643 0.05459103 0.032429844 0 0 0 255
-0.024750179 0.05409073 0.024502933 0 0 0 255
-0.0016902881 0.052662842 0.028250903 0 0 0 255
0.0048190514 0.051445186 0.03289488 0 0 0 255
-0.013513403 0.0509564 0.022896886 0 0 0 255
-0.0043782014 0.050300293 0.02937746 0 0 0 255
-0.0008043926 0.048673913 0.025115788 0 0 0 255
-0.010023915 0.048305728 0.03196016 0 0 0 255
0.0010772664 0.047714517 0.029371113 0 0 0 255
-0.006773808 0.046607733 0.02537772 0 0 0 255
-0.010069637 0.04631315 0.024100453 0 0 0 255
-0.008659761 0.04608278 0.023987383 0 0 0 255
-0.123629116 0.062134154 0.00095018744 0 0 0 255
-0.12963381 0.06132479 0.007797092 0 0 0 255
-0.13033016 0.05893658 -0.009709984 0 0 0 255
-0.12874953 0.055355377 0.0011147857 0 0 0 255
-0.13801268 0.053653665 -0.005350262 0 0 0 255
-0.12066236 0.05037903 0.011971176 0 0 0 255
-0.11831788 0.04939753 0.0065072477 0 0 0 255
-0.12546392 0.049341165 0.007496834 0 0 0 255
-0.120853946 0.047756888 0.008966804 0 0 0 255
-0.12044118 0.04549931 0.006575674 0 0 0 255
-0.12374286 0.04291544 0.0022127628 0 0 0 255
0.031406943 0.061958417 0.024635762 0 0 0 255
0.02277201 0.060896806 0.034534782 0 0 0 255
0.049047448 0.05715479 0.0316101 0 0 0 255
0.046863236 0.05689574 0.029289275 0 0 0 255
0.038568035 0.056317404 0.03116411 0 0 0 255
0.024484169 0.056062333 0.029676557 0 0 0 255
0.02070862 0.05543729 0.036010027 0 0 0 255
0.03555815 0.053679198 0.03448367 0 0 0 255
0.040770434 0.05266936 0.03933361 0 0 0 255
0.025638964 0.051523797 0.026067376 0 0 0 255
0.033411544 0.050975315 0.032215655 0 0 0 255
0.025336068 0.04989752 0.03806731 0 0 0 255
0.037655722 0.04967668 0.030779153 0 0 0 255
0.040838543 0.048177622 0.032443076 0 0 0 255
0.023169909 0.04748495 0.028384954 0 0 0 255
0.030558128 0.047287382 0.028314441 0 0 0 255
0.028036963 0.047037907 0.027638793 0 0 0 255
0.031530052 0.042573154 0.025980383 0 0 0 255
-0.24909163 0.060585976 -0.038021535 0 0 0 255
-0.24816869 0.056789517 -0.041827768 0 0 0 255
-0.26560098 0.056032613 -0.045353264 0 0 0 255
-0.25521427 0.05502473 -0.051884204 0 0 0 255
-0.2363166 0.05438292 -0.047149926 0 0 0 255
-0.23842822 0.051056333 -0.0498915 0 0 0 255
-0.240123 0.049060337 -0.032444805 0 0 0 255
-0.24456936 0.045512453 -0.044413537 0 0 0 255
-0.254059 0.04454729 -0.046963423 0 0 0 255
-0.23893039 0.044072874 -0.04236731 0 0 0 255
-0.2565336 0.04358907 -0.045172006 0 0 0 255
-0.2482477 0.041631944 -0.034566194 0 0 0 255
0.15958025 0.06056732 -0.01768598 0 0 0 255
0.16332373 0.058170207 -0.01578629 0 0 0 255
0.15411477 0.055778578 -0.022973806 0 0 0 255
0.16763568 0.05434911 -0.022127539 0 0 0 255
0.16361335 0.05081743 -0.020582706 0 0 0 255
0.15336639 0.05059962 -0.008483946 0 0 0 255
0.17080632 0.048230447 -0.013179719 0 0 0 255
0.17233548 0.047186367 -0.022839397 0 0 0 255
0.1508893 0.044888042 -0.009582341 0 0 0 255
0.16361953 0.043127485 -0.02145353 0 0 0 255
0.134298 0.06004545 0.017148912 0 0 0 255
0.12717645 0.05606985 0.0063041747 0 0 0 255
0.1272181 0.05577126 0.008455366 0 0 0 255
0.13292868 0.051746175 0.008971304 0 0 0 255
0.13447829 0.048963174 0.019739985 0 0 0 255
0.123001456 0.045227103 0.009897292 0 0 0 255
0.13843948 0.044937246 0.007464528 0 0 0 255
0.13509896 0.040966496 0.016082495 0 0 0 255
-0.18047835 0.059806235 -0.03748831 0 0 0 255
-0.17109658 0.059484817 -0.026432067 0 0 0 255
-0.17921723 0.057010822 -0.03868702 0 0 0 255
-0.16305448 0.05688239 -0.030941516 0 0 0 255
-0.17521007 0.056394495 -0.024143726 0 0 0 255
-0.16972153 0.056392133 -0.024062842 0 0 0 255
-0.18429965 0.05185172 -0.030819207 0 0 0 255
-0.19055702 0.051749125 -0.034809798 0 0 0 255
-0.17677799 0.05134333 -0.028686672 0 0 0 255
-0.191509 0.04919637 -0.036911815 0 0 0 255
-0.19456415 0.048317738 -0.035262078 0 0 0 255
-0.16969322 0.045439385 -0.0311127 0 0 0 255
-0.1926814 0.044918485 -0.032703012 0 0 0 255
-0.21998583 0.059551604 -0.033762127 0 0 0 255
-0.22431523 0.05621116 -0.04747513 0 0 0 255
-0.21871674 0.05389674 -0.040639848 0 0 0 255
-0.229282 0.051314168 -0.035798103 0 0 0 255
-0.23090507 0.050529815 -0.045056015 0 0 0 255
-0.2196005 0.049808234 -0.037867695 0 0 0 255
-0.23034433 0.0477046 -0.04220912 0 0 0 255
-0.21082486 0.045567192 -0.044015437 0 0 0 255
-0.21473372 0.044253923 -0.0440937 0 0 0 255
0.19098721 0.056992926 -0.018717617 0 0 0 255
0.18021548 0.056727104 -0.015283048 0 0 0 255
0.19317448 0.05455421 -0.03012994 0 0 0 255
0.20190617 0.05353111 -0.021919936 0 0 0 255
0.17514569 0.052635796 -0.029925495 0 0 0 255
0.18585719 0.047283083 -0.028784782 0 0 0 255
0.18042882 0.04453478 -0.0136298835 0 0 0 255
0.19306998 0.0438743 -0.032769114 0 0 0 255
0.22366938 0.056048967 -0.025007337 0 0 0 255
0.21428639 0.054897174 -0.033767432 0 0 0 255
0.22237171 0.053628355 -0.040447086 0 0 0 255
0.21967271 0.052395657 -0.037320882 0 0 0 255
0.21081582 0.051010057 -0.03342828 0 0 0 255
0.22215393 0.048586696 -0.040543586 0 0 0 255
0.21285783 0.046430454 -0.025659412 0 0 0 255
0.21369842 0.04438865 -0.034200937 0 0 0 255
0.22150475 0.044263147 -0.020018727 0 0 0 255
0.23315045 0.040584974 -0.03325233 0 0 0 255
-0.029167786 0.05555214 0.02270025 0 0 0 255
-0.027021704 0.051453523 0.019121021 0 0 0 255
-0.031097911 0.05094018 0.03178656 0 0 0 255
-0.037082657 0.047090977 0.028731823 0 0 0 255
-0.025342785 0.047064207 0.025819898 0 0 0 255
-0.030345853 0.045869112 0.032607347 0 0 0 255
-0.040710453 0.045764543 0.02486366 0 0 0 255
-0.020462062 0.042838953 0.029197454 0 0 0 255
-0.03308385 0.040905558 0.022625923 0 0 0 255
-0.02319758 0.040547237 0.029361367 0 0 0 255
-0.027564354 0.03918633 0.0329265 0 0 0 255
-0.020130388 0.03843347 0.023574382 0 0 0 255
-0.024600215 0.037876032 0.025070786 0 0 0 255
-0.025525324 0.036853828 0.02402383 0 0 0 255
-0.029133607 0.03645833 0.023423225 0 0 0 255
-0.0952852 0.05540295 0.020150006 0 0 0 255
-0.10016516 0.054472767 0.02374354 0 0 0 255
-0.08257825 0.053009488 0.025978148 0 0 0 255
-0.09046575 0.0515161 0.016190171 0 0 0 255
-0.077653065 0.050926052 0.02455154 0 0 0 255
-0.1070695 0.050030872 0.0063943565 0 0 0 255
-0.09311951 0.049595706 0.01310125 0 0 0 255
-0.08104613 0.048718326 0.018265218 0 0 0 255
-0.10548276 0.048517734 0.019283473 0 0 0 255
-0.079145886 0.04705111 0.020587027 0 0 0 255
-0.08179493 0.04616455 0.026492566 0 0 0 255
-0.09353916 0.045769483 0.01823178 0 0 0 255
-0.08272174 0.044793673 0.0155489445 0 0 0 255
-0.08768113 0.04457418 0.014044613 0 0 0 255
-0.10097797 0.043283105 0.021331042 0 0 0 255
-0.08609153 0.040895425 0.014564842 0 0 0 255
-0.09747293 0.040567257 0.016691536 0 0 0 255
-0.08652509 0.040098727 0.02365774 0 0 0 255
-0.10106388 0.03848639 0.012340277 0 0 0 255
-0.095184386 0.035867877 0.019326776 0 0 0 255
0.26738068 0.053906508 -0.0434452 0 0 0 255
0.26449275 0.052436322 -0.04177925 0 0 0 255
0.26512703 0.049497567 -0.037713736 0 0 0 255
0.25315616 0.04926619 -0.0453687 0 0 0 255
0.2807759 0.048499107 -0.04948923 0 0 0 255
0.25548574 0.045123212 -0.035236448 0 0 0 255
0.26658487 0.04293006 -0.033610493 0 0 0 255
0.28019273 0.04087691 -0.03973034 0 0 0 255
0.2556726 0.03776805 -0.042220324 0 0 0 255
0.050797455 0.05254052 0.027362645 0 0 0 255
0.054239705 0.04902544 0.033510685 0 0 0 255
0.037785593 0.048817135 0.038311243 0 0 0 255
0.037627608 0.047489837 0.038791716 0 0 0 255
0.054202892 0.0448466 0.03774479 0 0 0 255
0.058685586 0.04409857 0.041215897 0 0 0 255
0.045199893 0.042068534 0.028473616 0 0 0 255
0.05247982 0.04184901 0.033573836 0 0 0 255
0.042951282 0.04172337 0.040298313 0 0 0 255
0.038862675 0.04057604 0.032649785 0 0 0 255
0.05702106 0.040460326 0.032944232 0 0 0 255
0.05726935 0.0399466 0.03328505 0 0 0 255
0.056324497 0.039886944 0.04087487 0 0 0 255
0.054486006 0.039453328 0.040845364 0 0 0 255
0.049243595 0.03849899 0.031838864 0 0 0 255
0.047097616 0.037921563 0.030007154 0 0 0 255
0.050937206 0.03318049 0.028705597 0 0 0 255
0.012064227 0.051858902 0.021298945 0 0 0 255
0.007969975 0.047411703 0.028051108 0 0 0 255
0.0037947176 0.046457008 0.03449741 0 0 0 255
0.01731759 0.043719657 0.031040907 0 0 0 255
0.022902586 0.04279384 0.034794837 0 0 0 255
0.0061952407 0.04143084 0.024823517 0 0 0 255
0.014733459 0.041102447 0.029762417 0 0 0 255
0.007874644 0.04012146 0.034687966 0 0 0 255
0.024475183 0.03951007 0.030820101 0 0 0 255
0.018755611 0.039415054 0.027778715 0 0 0 255
0.020132806 0.038595162 0.03145662 0 0 0 255
0.0075080795 0.038293816 0.024672985 0 0 0 255
0.01186156 0.037362814 0.025506526 0 0 0 255
0.009047308 0.0370045 0.0250175 0 0 0 255
0.012180182 0.032141507 0.020710886 0 0 0 255
0.14222987 0.051828817 -0.0011036694 0 0 0 255
0.15650316 0.048954114 0.0032879412 0 0 0 255
0.14947791 0.044809178 -0.0038181543 0 0 0 255
0.14754696 0.04211372 0.0057868958 0 0 0 255
0.13596667 0.041476704 0.0064184368 0 0 0 255
0.1442722 0.03944166 0.00064241886 0 0 0 255
0.14390495 0.038195655 0.0016441047 0 0 0 255
0.14362463 0.034335107 -0.0025871694 0 0 0 255
-0.065785 0.051260903 0.019882768 0 0 0 255
-0.06743557 0.05010184 0.028237373 0 0 0 255
-0.05864718 0.0471342 0.025750399 0 0 0 255
-0.07544667 0.046376087 0.026631743 0 0 0 255
-0.06476677 0.045189038 0.030232012 0 0 0 255
-0.07310309 0.04489845 0.023108631 0 0 0 255
-0.058351286 0.041982435 0.027839541 0 0 0 255
-0.072875 0.04010483 0.017003238 0 0 0 255
-0.061291285 0.039767057 0.025044322 0 0 0 255
-0.06304366 0.038418867 0.032127738 0 0 0 255
-0.056248665 0.038321026 0.02928698 0 0 0 255
-0.07591872 0.038204707 0.02342099 0 0 0 255
-0.05923203 0.037823737 0.024235249 0 0 0 255
-0.056064896 0.037240796 0.029206097 0 0 0 255
-0.06191129 0.0369874 0.027443707 0 0 0 255
-0.06772448 0.03564003 0.019382685 0 0 0 255
-0.06574545 0.031816334 0.021229327 0 0 0 255
-0.15699084 0.0503958 -0.02702257 0 0 0 255
-0.14678603 0.048641026 -0.011979461 0 0 0 255
-0.15498285 0.047409944 -0.025910527 0 0 0 255
-0.16383436 0.04734361 -0.022892624 0 0 0 255
-0.16698423 0.04450366 -0.020961314 0 0 0 255
-0.1679295 0.042664535 -0.027068228 0 0 0 255
-0.16988681 0.042382702 -0.025818497 0 0 0 255
-0.16168085 0.042037845 -0.023312956 0 0 0 255
-0.15654692 0.041957885 -0.025612205 0 0 0 255
-0.16286816 0.035649955 -0.029144615 0 0 0 255
-0.15188968 0.05005589 -0.0070404112 0 0 0 255
-0.13686179 0.047950864 -0.0067948103 0 0 0 255
-0.14253108 0.03877467 -0.0013665557 0 0 0 255
-0.14002472 0.038492106 -0.005273223 0 0 0 255
-0.14642853 0.037719876 -0.006171882 0 0 0 255
-0.14355044 0.036854476 -0.0058707595 0 0 0 255
-0.14238574 0.03425782 -0.0037617385 0 0 0 255
-0.15116778 0.032954574 -0.0023788512 0 0 0 255
0.20795795 0.04887099 -0.044825763 0 0 0 255
0.2048586 0.04501825 -0.029447824 0 0 0 255
0.20130819 0.042465515 -0.041552514 0 0 0 255
0.19907892 0.04132533 -0.039113015 0 0 0 255
0.21067072 0.037970968 -0.04987529 0 0 0 255
0.21145105 0.037348963 -0.04413268 0 0 0 255
0.20039846 0.037246577 -0.04008755 0 0 0 255
0.20055369 0.035819776 -0.04023549 0 0 0 255
0.20975725 0.035734825 -0.042690426 0 0 0 255
0.23265298 0.048742034 -0.041817814 0 0 0 255
0.24489442 0.042999193 -0.040706128 0 0 0 255
0.240482 0.04233919 -0.033532232 0 0 0 255
0.24280947 0.038293287 -0.035811096 0 0 0 255
0.23062077 0.037983507 -0.044160217 0 0 0 255
0.23492274 0.03576553 -0.03160587 0 0 0 255
0.22349228 0.031871274 -0.040846318 0 0 0 255
0.18709931 0.048694752 -0.038423926 0 0 0 255
0.17398113 0.048485383 -0.028362721 0 0 0 255
0.176105 0.044552118 -0.03379801 0 0 0 255
0.18996336 0.039885715 -0.034889013 0 0 0 255
0.18703076 0.037254974 -0.04844019 0 0 0 255
0.19362341 0.036812425 -0.024437934 0 0 0 255
0.1842709 0.034676716 -0.028145581 0 0 0 255
0.19594873 0.034584545 -0.03592649 0 0 0 255
0.17919007 0.031663567 -0.038809568 0 0 0 255
0.18965173 0.029834032 -0.04164043 0 0 0 255
-0.045231417 0.04785543 0.033093095 0 0 0 255
-0.049140133 0.0415762 0.031116664 0 0 0 255
-0.04646519 0.041574135 0.019686371 0 0 0 255
-0.04201455 0.038841084 0.026846886 0 0 0 255
-0.047392476 0.037130214 0.03278616 0 0 0 255
-0.03921607 0.032962263 0.029168248 0 0 0 255
-0.04198831 0.030830756 0.02983436 0 0 0 255
-0.045041315 0.030160695 0.03437388 0 0 0 255
0.10591031 0.047623828 0.024990737 0 0 0 255
0.10564983 0.047070287 0.01919657 0 0 0 255
0.10633506 0.04687833 0.03294441 0 0 0 255
0.10910869 0.045621946 0.020095885 0 0 0 255
0.0952377 0.04342691 0.034618616 0 0 0 255
0.11113005 0.042374752 0.018712342 0 0 0 255
0.09111057 0.042249337 0.031078368 0 0 0 255
0.1142928 0.041665494 0.032750428 0 0 0 255
0.09718577 0.04067628 0.026948601 0 0 0 255
0.09642051 0.039686173 0.030298471 0 0 0 255
0.10465868 0.03875467 0.019884259 0 0 0 255
0.0913669 0.038358606 0.026166677 0 0 0 255
0.11528635 0.03554281 0.021507114 0 0 0 255
0.114210635 0.03382969 0.03125879 0 0 0 255
0.11282542 0.032244503 0.021358788 0 0 0 255
0.1069026 0.031580552 0.016141474 0 0 0 255
0.10722314 0.028970376 0.03064555 0 0 0 255
0.1067141 0.028079733 0.02191031 0 0 0 255
-0.20291631 0.04566256 -0.046025604 0 0 0 255
-0.18963915 0.044785917 -0.049895316 0 0 0 255
-0.19986586 0.044497564 -0.03939715 0 0 0 255
-0.19745815 0.042724133 -0.04645446 0 0 0 255
-0.21032609 0.04174281 -0.03551933 0 0 0 255
-0.21562415 0.040702358 -0.046086937 0 0 0 255
-0.19865379 0.04043997 -0.033777207 0 0 0 255
-0.20792855 0.04032296 -0.039969653 0 0 0 255
-0.21222691 0.038664185 -0.042106718 0 0 0 255
-0.18872371 0.035591133 -0.04006949 0 0 0 255
-0.21353534 0.034215435 -0.034525603 0 0 0 255
-0.19394884 0.034006044 -0.043522447 0 0 0 255
-0.21164976 0.03355264 -0.05014488 0 0 0 255
-0.19292097 0.031317562 -0.039592117 0 0 0 255
-0.19412471 0.030069709 -0.0466986 0 0 0 255
-0.19491652 0.029086068 -0.044385523 0 0 0 255
-0.20340973 0.027681574 -0.04118201 0 0 0 255
-0.11545362 0.044959664 0.013332844 0 0 0 255
-0.12981017 0.044175714 0.009509385 0 0 0 255
-0.120930985 0.043437377 0.013595492 0 0 0 255
-0.107954934 0.042024337 0.011800259 0 0 0 255
-0.1138831 0.039020605 0.007933527 0 0 0 255
-0.12885003 0.03648056 0.0024439096 0 0 0 255
-0.111841865 0.036258414 0.013759941 0 0 0 255
-0.09984345 0.0360962 0.010743469 0 0 0 255
-0.1007547 0.03600824 0.022160172 0 0 0 255
-0.103270635 0.03422226 0.00877732 0 0 0 255
-0.10861515 0.03388354 0.006986946 0 0 0 255
-0.12078055 0.032577023 0.012838453 0 0 0 255
-0.12652814 0.03173028 0.00482291 0 0 0 255
-0.10765185 0.029869169 0.0048356056 0 0 0 255
-0.11823224 0.029728875 0.0064002573 0 0 0 255
-0.10660228 0.029503599 0.01664278 0 0 0 255
-0.121577345 0.02800934 0.0059226155 0 0 0 255
-0.23234235 0.044509634 -0.04781148 0 0 0 255
-0.2340895 0.043580353 -0.036942393 0 0 0 255
-0.22078848 0.038762845 -0.03386435 0 0 0 255
-0.24812622 0.03855908 -0.039740473 0 0 0 255
-0.22383514 0.034869418 -0.044457287 0 0 0 255
-0.21997906 0.034623615 -0.041117936 0 0 0 255
-0.23251708 0.034392625 -0.045467645 0 0 0 255
-0.236422 0.03326325 -0.046101004 0 0 0 255
-0.2297687 0.03186868 -0.035256058 0 0 0 255
-0.23028426 0.029416278 -0.040113837 0 0 0 255
-0.23822144 0.029179767 -0.048574716 0 0 0 255
-0.23071003 0.028871223 -0.043743104 0 0 0 255
-0.27539608 0.044108763 -0.047689468 0 0 0 255
-0.2946289 0.043840863 -0.043005973 0 0 0 255
-0.2596204 0.039831005 -0.047962397 0 0 0 255
-0.26246378 0.035369493 -0.03639105 0 0 0 255
-0.2730639 0.03379689 -0.041029483 0 0 0 255
-0.27746984 0.032738894 -0.045189947 0 0 0 255
-0.2799396 0.028822348 -0.044071764 0 0 0 255
-0.2750003 0.02802679 -0.045787543 0 0 0 255
0.07027823 0.04302699 0.02862975 0 0 0 255
0.0777735 0.042562403 0.04157272 0 0 0 255
0.084992975 0.042176 0.025330037 0 0 0 255
0.06992495 0.041622818 0.035133034 0 0 0 255
0.08642933 0.039004914 0.03331098 0 0 0 255
0.08540911 0.038096845 0.02820605 0 0 0 255
0.07271204 0.0360779 0.040996492 0 0 0 255
0.07689385 0.034876622 0.039251983 0 0 0 255
0.06057296 0.033397533 0.041564196 0 0 0 255
0.054558925 0.033321753 0.034990758 0 0 0 255
0.07165384 0.0326716 0.034451157 0 0 0 255
0.06488414 0.03250751 0.029421926 0 0 0 255
0.07585764 0.031497434 0.037527055 0 0 0 255
0.07138703 0.031238094 0.04193628 0 0 0 255
0.074010104 0.031214297 0.0319767 0 0 0 255
0.075729996 0.030620903 0.039050043 0 0 0 255
0.06790009 0.02954702 0.033903867 0 0 0 255
0.066266626 0.02857709 0.030438662 0 0 0 255
0.07019231 0.026054606 0.03708765 0 0 0 255
-0.013172828 0.042073682 0.03222823 0 0 0 255
-0.007439829 0.04185737 0.020400375 0 0 0 255
-0.008719463 0.038720563 0.026676714 0 0 0 255
-0.017810808 0.03784465 0.0293563 0 0 0 255
-0.013254991 0.03744939 0.03323123 0 0 0 255
-0.0012146924 0.033654876 0.0280914 0 0 0 255
-0.013352263 0.031239629 0.023094326 0 0 0 255
-0.004116215 0.031179234 0.027796477 0 0 0 255
-0.009795856 0.030469283 0.032767236 0 0 0 255
-0.025488187 0.030219972 0.02650845 0 0 0 255
-0.008453523 0.029732302 0.024327278 0 0 0 255
-0.0003775293 0.029031947 0.024783134 0 0 0 255
-0.006863181 0.027622044 0.024644911 0 0 0 255
-0.010079505 0.026992217 0.023371786 0 0 0 255
0.12766735 0.041546047 0.01253587 0 0 0 255
0.12787794 0.036041744 0.005687773 0 0 0 255
0.12629245 0.03596396 0.021348298 0 0 0 255
0.12806211 0.035878003 0.0064027607 0 0 0 255
0.1282596 0.035197847 0.0116249025 0 0 0 255
0.1345801 0.030924812 0.0036459863 0 0 0 255
0.13542935 0.030397356 0.019171715 0 0 0 255
0.12055227 0.030025661 0.014128149 0 0 0 255
0.12040666 0.029019102 0.014836103 0 0 0 255
0.12362334 0.028565899 0.010769963 0 0 0 255
0.16614032 0.039514534 -0.021065682 0 0 0 255
0.16005209 0.039460346 -0.017145276 0 0 0 255
0.15499742 0.036990024 -0.024002641 0 0 0 255
0.1698056 0.03327754 -0.025484353 0 0 0 255
0.17705849 0.03091921 -0.035152584 0 0 0 255
0.16483845 0.029723346 -0.021924466 0 0 0 255
0.1555099 0.029087886 -0.013954639 0 0 0 255
0.1733128 0.027984202 -0.019385964 0 0 0 255
0.17462131 0.025942102 -0.026476711 0 0 0 255
0.16458625 0.025381103 -0.020540506 0 0 0 255
-0.17339689 0.038729638 -0.03101644 0 0 0 255
-0.18376674 0.038079843 -0.045461863 0 0 0 255
-0.1762699 0.037686177 -0.024694055 0 0 0 255
-0.17315143 0.035220847 -0.03271678 0 0 0 255
-0.18207896 0.034918673 -0.04654619 0 0 0 255
-0.18493536 0.030380413 -0.033435494 0 0 0 255
-0.15724422 0.029779777 -0.026136905 0 0 0 255
-0.1812847 0.029682115 -0.03903857 0 0 0 255
-0.16310471 0.02696383 -0.019482344 0 0 0 255
-0.16634573 0.026081234 -0.017564088 0 0 0 255
-0.16957334 0.024744108 -0.02960208 0 0 0 255
0.020845506 0.038551413 0.037522078 0 0 0 255
0.036104996 0.034891658 0.03479579 0 0 0 255
0.004853296 0.03315884 0.03268051 0 0 0 255
0.025661081 0.032262534 0.03884974 0 0 0 255
0.033715602 0.032069057 0.033071965 0 0 0 255
0.0258702 0.03192164 0.026747674 0 0 0 255
0.023454893 0.031532258 0.029654026 0 0 0 255
0.007927216 0.030751467 0.029208481 0 0 0 255
0.03778316 0.030605197 0.040058404 0 0 0 255
0.03797953 0.03038399 0.032375664 0 0 0 255
0.038153853 0.030064896 0.0393807 0 0 0 255
0.0038936818 0.029226005 0.034817427 0 0 0 255
0.030688591 0.028480545 0.02855733 0 0 0 255
0.028223846 0.027909711 0.0278804 0 0 0 255
0.017859988 0.024729848 0.030881405 0 0 0 255
0.023021016 0.0244672 0.03458932 0 0 0 255
-0.082729064 0.03557609 0.02631569 0 0 0 255
-0.090818726 0.034658216 0.015374839 0 0 0 255
-0.07748601 0.031809494 0.023903966 0 0 0 255
-0.0678332 0.031676725 0.0275276 0 0 0 255
-0.081250675 0.029338673 0.016685456 0 0 0 255
-0.09409124 0.028449625 0.017996132 0 0 0 255
-0.073238246 0.028370038 0.022984117 0 0 0 255
-0.082153074 0.027780354 0.025393844 0 0 0 255
-0.07890176 0.027397245 0.021231472 0 0 0 255
-0.07521839 0.02709426 0.02676645 0 0 0 255
-0.08343172 0.025456294 0.013838917 0 0 0 255
-0.08809138 0.025013968 0.013326108 0 0 0 255
-0.031103618 0.0328338 0.0325332 0 0 0 255
-0.027010787 0.031821758 0.019502103 0 0 0 255
-0.04057762 0.029602796 0.025917381 0 0 0 255
-0.03032425 0.028640479 0.033171505 0 0 0 255
-0.039546974 0.028354153 0.024468005 0 0 0 255
-0.036765516 0.027940333 0.029344887 0 0 0 255
-0.043611508 0.027770728 0.027550966 0 0 0 255
-0.048068903 0.026756749 0.024209857 0 0 0 255
0.043305974 0.024198145 0.04155931 0 0 0 255
0.057327464 0.023410827 0.0344266 0 0 0 255
0.0316724 0.02309464 0.026843727 0 0 0 255
0.052762493 0.02295342 0.034919202 0 0 0 255
0.054658115 0.022593811 0.04210967 0 0 0 255
0.045464545 0.022483513 0.029153556 0 0 0 255
0.056708626 0.021193549 0.04193932 0 0 0 255
0.05741986 0.021148205 0.03405395 0 0 0 255
0.049440958 0.01970984 0.032083303 0 0 0 255
0.047351763 0.018777668 0.0302535 0 0 0 255
0.054818705 0.017699465 0.03695312 0 0 0 255
0.041152354 0.01685983 0.04178047 0 0 0 255
0.036534395 0.01610455 0.036086112 0 0 0 255
0.060961463 0.01585634 0.042827606 0 0 0 255
0.04085608 0.01521565 0.035204202 0 0 0 255
0.025984053 0.014636934 0.040123194 0 0 0 255
0.037938986 0.0136871785 0.04132861 0 0 0 255
0.05114889 0.013650969 0.029085904 0 0 0 255
0.03405913 0.013043731 0.033450574 0 0 0 255
0.03867864 0.01115568 0.039482117 0 0 0 255
0.03836225 0.011029735 0.033488512 0 0 0 255
0.03947595 0.008874103 0.035405308 0 0 0 255
0.04368262 0.0064893365 0.042351753 0 0 0 255
-0.21125916 0.02416183 -0.04495296 0 0 0 255
-0.20344898 0.023865312 -0.04610464 0 0 0 255
-0.20561473 0.023308992 -0.052380115 0 0 0 255
-0.21610795 0.022840515 -0.047010332 0 0 0 255
-0.19981845 0.022188053 -0.053100377 0 0 0 255
-0.21095853 0.022139743 -0.035453886 0 0 0 255
-0.21425644 0.019129112 -0.04523781 0 0 0 255
-0.20280035 0.018712893 -0.042134434 0 0 0 255
-0.21782939 0.018075347 -0.05309227 0 0 0 255
-0.20994608 0.017942622 -0.04739961 0 0 0 255
-0.22178891 0.017742813 -0.034440428 0 0 0 255
-0.22164789 0.014933094 -0.042527765 0 0 0 255
-0.21337457 0.0143340975 -0.032473177 0 0 0 255
-0.22135064 0.014273852 -0.036021203 0 0 0 255
-0.215652 0.014028221 -0.045354158 0 0 0 255
-0.19632103 0.012086138 -0.050370365 0 0 0 255
0.151903 0.024073929 -0.011078656 0 0 0 255
0.14781259 0.024038091 0.007178962 0 0 0 255
0.16752031 0.021347716 -0.021960586 0 0 0 255
0.14589944 0.01854603 -0.0020108223 0 0 0 255
0.15521856 0.018517166 -0.022611767 0 0 0 255
0.15834051 0.018042728 0.0027984679 0 0 0 255
0.14358473 0.017794162 0.00074133277 0 0 0 255
0.1617216 0.01766418 -0.021395892 0 0 0 255
0.14648055 0.017503351 -0.0035113096 0 0 0 255
0.15866613 0.009061113 -8.323789e-05 0 0 0 255
0.15648007 0.0076333284 -0.015055418 0 0 0 255
0.21730433 0.023789823 -0.041392 0 0 0 255
0.22442374 0.02350533 -0.024714798 0 0 0 255
0.2083616 0.022782624 -0.03837338 0 0 0 255
0.20464385 0.01959294 -0.05009058 0 0 0 255
0.23549342 0.018688142 -0.036424547 0 0 0 255
0.20251079 0.01838781 -0.049037725 0 0 0 255
0.21540135 0.013850987 -0.054013103 0 0 0 255
0.22763056 0.013720185 -0.030950814 0 0 0 255
0.20675886 0.01364094 -0.05466476 0 0 0 255
0.20498931 0.013350546 -0.048686832 0 0 0 255
0.20709193 0.011821076 -0.030802399 0 0 0 255
0.21822521 0.011817843 -0.037459344 0 0 0 255
0.22274335 0.00878264 -0.04139456 0 0 0 255
0.22721604 0.008762389 -0.049340338 0 0 0 255
0.21703446 0.0066106915 -0.045039326 0 0 0 255
0.21781571 0.005272299 -0.03456667 0 0 0 255
-0.020044073 0.023769662 0.028551698 0 0 0 255
-0.01326859 0.023620054 0.031535923 0 0 0 255
-0.007421843 0.022003815 0.019329935 0 0 0 255
-0.008805319 0.021901816 0.027608246 0 0 0 255
-0.023052271 0.021365672 0.027780265 0 0 0 255
-0.027386125 0.021324009 0.03373632 0 0 0 255
-0.03293217 0.02125737 0.02379781 0 0 0 255
-0.024507836 0.021235183 0.024466604 0 0 0 255
-0.01320557 0.020126179 0.033560127 0 0 0 255
-0.01743232 0.01862365 0.029484779 0 0 0 255
-0.019752149 0.018581554 0.022277892 0 0 0 255
-0.025475524 0.018087834 0.02524224 0 0 0 255
-0.029195048 0.017123207 0.023185909 0 0 0 255
-0.031171974 0.014527932 0.03280896 0 0 0 255
-0.02565155 0.013212979 0.026971728 0 0 0 255
-0.008262422 0.0129188 0.023499936 0 0 0 255
-0.009595666 0.012423396 0.033108473 0 0 0 255
-0.026999332 0.012089714 0.019892663 0 0 0 255
-0.030279253 0.01139012 0.033983737 0 0 0 255
-0.013197047 0.0112951845 0.022330254 0 0 0 255
-0.019622786 0.004533261 0.027921796 0 0 0 255
-0.23415956 0.023585439 -0.03537038 0 0 0 255
-0.2527619 0.023497358 -0.042494625 0 0 0 255
-0.23197995 0.022790626 -0.0454776 0 0 0 255
-0.24878463 0.022177681 -0.03402391 0 0 0 255
-0.24853337 0.02007541 -0.038598925 0 0 0 255
-0.2332084 0.012821257 -0.046886593 0 0 0 255
-0.23068096 0.012106746 -0.035669 0 0 0 255
-0.23706484 0.011934161 -0.04653272 0 0 0 255
-0.23084822 0.010740504 -0.03943661 0 0 0 255
-0.23901957 0.006435409 -0.037528366 0 0 0 255
-0.2333716 0.00394392 -0.031864613 0 0 0 255
0.07048749 0.023582548 0.029492825 0 0 0 255
0.085728265 0.022169515 0.02360928 0 0 0 255
0.08672008 0.020279914 0.03404531 0 0 0 255
0.085955665 0.01863055 0.027026296 0 0 0 255
0.07326466 0.01742576 0.04178658 0 0 0 255
0.077226825 0.016643718 0.03953734 0 0 0 255
0.07154842 0.014431596 0.0434404 0 0 0 255
0.07426426 0.014263272 0.031941235 0 0 0 255
0.07209819 0.013631254 0.034836352 0 0 0 255
0.065118924 0.012952298 0.030588657 0 0 0 255
0.076271415 0.012294382 0.03862813 0 0 0 255
0.07635553 0.011713177 0.039150566 0 0 0 255
0.06816481 0.010725513 0.034155756 0 0 0 255
0.07057551 0.01026082 0.038333207 0 0 0 255
0.066553 0.009428516 0.031178892 0 0 0 255
0.07085522 0.0038424581 0.028918058 0 0 0 255
-0.049195476 0.023410752 0.03186825 0 0 0 255
-0.05807644 0.022936597 0.027678609 0 0 0 255
-0.055987302 0.022619173 0.03175375 0 0 0 255
-0.04218419 0.022030815 0.027777165 0 0 0 255
-0.04645651 0.02199404 0.02055341 0 0 0 255
-0.061198596 0.020678997 0.025416255 0 0 0 255
-0.06304581 0.020435587 0.032458663 0 0 0 255
-0.047319055 0.02003637 0.034073472 0 0 0 255
-0.05893029 0.018292233 0.025360912 0 0 0 255
-0.05577475 0.018110856 0.03030762 0 0 0 255
-0.062303137 0.018080458 0.026685208 0 0 0 255
-0.038858596 0.013988122 0.029983789 0 0 0 255
-0.059104864 0.013409317 0.027377993 0 0 0 255
-0.040524278 0.013092995 0.026034832 0 0 0 255
-0.04491322 0.012289107 0.035184294 0 0 0 255
-0.041817807 0.011872083 0.030688912 0 0 0 255
-0.052441664 0.011356249 0.024986982 0 0 0 255
-0.064534046 0.011069849 0.03353715 0 0 0 255
-0.04382533 0.008837506 0.027297586 0 0 0 255
-0.036447342 0.008722782 0.029963553 0 0 0 255
-0.039235972 0.008718297 0.02511242 0 0 0 255
-0.048019037 0.0076330155 0.025428921 0 0 0 255
-0.05595416 0.006369725 0.03232777 0 0 0 255
-0.04924979 0.00514549 0.032632142 0 0 0 255
-0.042380143 0.005070284 0.02848056 0 0 0 255
-0.17168076 0.02332449 -0.029512793 0 0 0 255
-0.16691945 0.021819085 -0.022388369 0 0 0 255
-0.16027474 0.021725565 -0.01575151 0 0 0 255
-0.15897244 0.020966366 -0.03102526 0 0 0 255
-0.17580464 0.019759834 -0.020911485 0 0 0 255
-0.17587006 0.017433897 -0.036039203 0 0 0 255
-0.16183513 0.014813945 -0.023922116 0 0 0 255
-0.1718905 0.0050923526 -0.028408915 0 0 0 255
-0.1703563 0.003630221 -0.03153518 0 0 0 255
-0.12457395 0.023263767 0.0010253489 0 0 0 255
-0.13190147 0.022046715 -0.0069283843 0 0 0 255
-0.14180195 0.021117851 0.0024432838 0 0 0 255
-0.1395398 0.018597215 -0.0028959215 0 0 0 255
-0.114406615 0.018559635 0.0057204366 0 0 0 255
-0.1301118 0.018379971 -0.0058715045 0 0 0 255
-0.112895645 0.01829487 0.01188308 0 0 0 255
-0.12968753 0.017075956 0.001341641 0 0 0 255
-0.12154478 0.0141294 0.011309028 0 0 0 255
-0.109007835 0.01409325 0.006787628 0 0 0 255
-0.1419514 0.013933569 -0.0015877485 0 0 0 255
-0.12758723 0.013770953 0.002198249 0 0 0 255
-0.13694498 0.013527721 0.00092446804 0 0 0 255
-0.11836763 0.009766594 0.0048435926 0 0 0 255
-0.13206752 0.00801751 0.006277412 0 0 0 255
-0.12229669 0.007927507 0.0029108822 0 0 0 255
-0.121126115 0.0043214858 0.0011321008 0 0 0 255
0.024458624 0.022950187 0.032210737 0 0 0 255
0.008152536 0.022310942 0.03549227 0 0 0 255
0.015070562 0.021962956 0.02916935 0 0 0 255
0.0077868598 0.02184093 0.024780005 0 0 0 255
0.0064201104 0.021651208 0.02453804 0 0 0 255
0.020989656 0.021477029 0.038317382 0 0 0 255
0.019123375 0.019951716 0.028900206 0 0 0 255
0.020671818 0.019405678 0.031091273 0 0 0 255
0.01192619 0.018421575 0.025761604 0 0 0 255
0.009153617 0.017671779 0.024787188 0 0 0 255
0.023767542 0.0153815 0.030457705 0 0 0 255
0.007882365 0.013898671 0.029898286 0 0 0 255
0.026132185 0.012189299 0.026949674 0 0 0 255
0.030810926 0.0094524175 0.028333366 0 0 0 255
0.028411996 0.008648083 0.028137416 0 0 0 255
0.024456754 0.0062060356 0.03313282 0 0 0 255
0.023154534 0.0060813427 0.034884274 0 0 0 255
0.01836193 0.0056654215 0.03121847 0 0 0 255
0.11566168 0.022868529 0.029262722 0 0 0 255
0.11261486 0.021700785 0.012874842 0 0 0 255
0.10599866 0.021510795 0.017379612 0 0 0 255
0.09882252 0.020555183 0.022761613 0 0 0 255
0.0982544 0.020062715 0.0260396 0 0 0 255
0.1269585 0.017942235 0.02077654 0 0 0 255
0.11744219 0.015603483 0.016571432 0 0 0 255
0.11524357 0.01448603 0.027773261 0 0 0 255
0.114328295 0.0122281015 0.017471343 0 0 0 255
0.108246416 0.010595858 0.027660668 0 0 0 255
0.110804774 0.009901598 0.015830189 0 0 0 255
0.10746353 0.00825569 0.019352078 0 0 0 255
0.09222844 0.022816941 0.028097361 0 0 0 255
0.08900601 0.021883816 0.038246065 0 0 0 255
0.091982804 0.020866007 0.024478436 0 0 0 255
0.09687965 0.015128866 0.03693053 0 0 0 255
0.088505685 0.0149699 0.025148004 0 0 0 255
0.09093824 0.013139039 0.024508536 0 0 0 255
0.09718254 0.0058912784 0.020904422 0 0 0 255
0.096631594 0.0054300874 0.029993951 0 0 0 255
0.13555446 0.022010192 0.016954899 0 0 0 255
0.13657413 0.021427765 0.006909162 0 0 0 255
0.1293259 0.020733327 0.007971197 0 0 0 255
