ply
format ascii 1.0
element vertex 1326
property float32 x
property float32 y
property float32 z
element face 0
property list uint8 int32 vertex_index
end_header
-0.1775661 -0.23477933 -1.1047521
-0.013058127 -0.23478016 -1.0895278
-0.012299481 -0.23478678 -1.0922368
-0.23232535 -0.23479794 -1.1600797
-0.050561752 -0.23480012 -1.0836278
0.026079163 -0.23480536 -1.1073477
-0.17957823 -0.2348209 -1.110609
-0.1570566 -0.23482588 -1.0369167
-0.20633766 -0.23484302 -1.133139
0.024835669 -0.23484637 -1.1046393
-0.042067584 -0.23485272 -1.0957295
-0.17951447 -0.23485783 -1.1062471
-0.04212533 -0.23486528 -1.0968974
-0.106447205 -0.23487309 -0.96861696
-0.05066134 -0.23487833 -1.0824571
-0.20482907 -0.23488252 -1.1350698
-0.17771606 -0.23488553 -1.1049689
-0.10678478 -0.23488562 -0.9678671
-0.02819135 -0.23488721 -1.0887904
-0.23221378 -0.23489714 -1.1534617
-0.02800357 -0.23489735 -1.0888325
-0.20519897 -0.23490004 -1.1342945
-0.09276026 -0.23490559 -0.9680992
-0.18904358 -0.23491758 -1.1271131
-0.18951005 -0.2349215 -1.1280636
-0.041830696 -0.23492634 -1.09671
0.025820801 -0.2349409 -1.1073465
0.023915265 -0.23494875 -1.1026847
-0.10602202 -0.23494919 -0.9691629
-0.10634354 -0.23496343 -0.96863765
-0.013982771 -0.23496635 -1.0904815
-0.23197664 -0.23497327 -1.1534854
-0.18927525 -0.23498465 -1.1280817
-0.20471488 -0.23498732 -1.1360998
-0.18932551 -0.23499462 -1.1280833
-0.04925582 -0.23500508 -1.0806468
0.02529322 -0.2350103 -1.1075331
-0.23245 -0.23501188 -1.160133
-0.17760983 -0.23501329 -1.106654
-0.14718673 -0.2350379 -1.0269071
-0.09267576 -0.23504148 -0.9684147
-0.15508477 -0.23504211 -1.0337225
-0.1891521 -0.23504278 -1.1280857
0.024682151 -0.23505701 -1.1026862
-0.0931161 -0.23506035 -0.9687682
-0.2063578 -0.23506545 -1.1331196
-0.10651149 -0.23507485 -0.9698259
-0.14729771 -0.23507622 -1.0247992
-0.10620662 -0.2350901 -0.9696341
-0.04919682 -0.23509681 -1.0815958
-0.04840824 -0.23509802 -1.0444105
-0.20464505 -0.2351447 -1.1371005
-0.23202926 -0.23515885 -1.1535032
-0.014000716 -0.23516758 -1.0904647
-0.12853241 -0.23520042 -0.983001
0.0031436787 -0.23520976 -1.0940111
-0.049325183 -0.23521198 -1.0800006
-0.013896313 -0.23521237 -1.0894771
-0.12937091 -0.23521516 -0.9839178
0.025925685 -0.2352199 -1.110156
-0.1295595 -0.23522021 -0.9848748
-0.23202957 -0.2352268 -1.1544546
-0.23198459 -0.2352324 -1.1612539
0.0032567738 -0.23523876 -1.0938554
-0.01313006 -0.23524094 -1.0894833
-0.12964869 -0.23524506 -0.98585147
-0.093228124 -0.23524608 -0.96882826
0.023971802 -0.23526575 -1.1065754
0.02417589 -0.2352751 -1.10362
-0.2055413 -0.23528355 -1.1342264
0.024767328 -0.23529637 -1.1035931
0.024763025 -0.23530228 -1.1045973
-0.04882045 -0.23530734 -1.0809956
-0.09279583 -0.23530914 -0.9693667
-0.18946895 -0.2353169 -1.1290677
0.0031935936 -0.23531693 -1.0938603
-0.14553788 -0.23532026 -1.0130852
-0.09324239 -0.23532774 -0.9695517
-0.13715087 -0.23533209 -1.0038431
-0.09312419 -0.23533434 -0.968847
-0.10713444 -0.23533487 -0.9683001
0.0027410195 -0.23533782 -1.0940512
-0.060136173 -0.23533905 -0.98174167
-0.1800525 -0.23535231 -1.111122
-0.09361471 -0.23535672 -0.9685553
-0.2048669 -0.2353706 -1.138047
-0.013089402 -0.23538905 -1.0894457
-0.048898436 -0.2354028 -1.0821155
-0.012999837 -0.23540995 -1.0894468
-0.14712702 -0.235414 -1.0192521
0.002232398 -0.23544092 -1.0930866
0.001856712 -0.2354529 -1.0911467
0.023953935 -0.23546775 -1.106559
0.024929203 -0.23547614 -1.1045498
-0.23224372 -0.23548087 -1.1554054
0.02489528 -0.23548585 -1.1045547
-0.12849759 -0.23548996 -0.98394716
-0.14766648 -0.23549205 -1.0223988
-0.049230196 -0.23549567 -1.0809727
-0.06047032 -0.23552868 -0.982433
-0.12864807 -0.23553422 -0.9839765
-0.0136689795 -0.23554404 -1.090417
-0.10811988 -0.23554692 -0.9696727
0.002778895 -0.2355509 -1.093859
-0.0930106 -0.23556584 -0.97031814
-0.013127824 -0.23556592 -1.0904518
-0.062055912 -0.23556946 -0.97975343
-0.12926467 -0.23557028 -0.9848704
-0.14636244 -0.23557581 -1.0161505
-0.060055424 -0.23557916 -0.9825383
-0.012960789 -0.23558389 -1.0904037
-0.128941 -0.2356121 -0.98489326
0.0030536943 -0.23561417 -1.094826
-0.14760417 -0.23561701 -1.0223213
-0.108093254 -0.23562174 -0.96917576
-0.060105316 -0.23563816 -0.98253626
0.0028079103 -0.23564637 -1.0957073
0.0009430465 -0.23565812 -1.0921096
-0.06055217 -0.23565821 -0.9827233
-0.2061638 -0.23568004 -1.1341068
-0.0609623 -0.23569985 -0.9817384
-0.09392183 -0.23569986 -0.96851236
-0.20655379 -0.23570319 -1.1350663
-0.09481464 -0.23571295 -0.96893555
-0.049325306 -0.23571374 -1.0831023
-0.14786008 -0.23573484 -1.0243974
-0.048032723 -0.23573548 -1.0473843
-0.12862888 -0.2357465 -0.9848999
-0.062072515 -0.23575135 -0.97973585
-0.14648521 -0.23575181 -1.0160284
-0.013310823 -0.23576659 -1.0913688
-0.14702706 -0.23577783 -1.0191895
-0.060475554 -0.23580085 -0.9825087
-0.07968809 -0.23580344 -0.9706936
0.025887754 -0.23580578 -1.1121404
-0.23258068 -0.23581384 -1.1641265
-0.20561682 -0.23581736 -1.1341684
-0.048837118 -0.2358219 -1.083875
-0.10801472 -0.23582228 -0.9691713
0.0026925553 -0.23585208 -1.0957721
0.0009252421 -0.23585871 -1.0920928
0.024647767 -0.2358714 -1.1064798
-0.1288277 -0.2358736 -0.9858616
0.0018060383 -0.23587926 -1.0901034
0.001895893 -0.23589183 -1.090105
0.0017849493 -0.23591003 -1.091103
-0.205959 -0.23591058 -1.1351125
-0.060622387 -0.23592997 -0.9834518
-0.1480308 -0.23595148 -1.0263942
-0.06199106 -0.23595238 -0.9797195
-0.107804686 -0.23596115 -0.9691631
-0.08003411 -0.23597331 -0.97137135
-0.20572329 -0.23597884 -1.1351329
-0.10728534 -0.23599079 -0.96920633
-0.05009091 -0.23599245 -1.081126
-0.10748494 -0.23600161 -0.9691804
-0.094868265 -0.23600294 -0.9693961
-0.20559964 -0.23604208 -1.1351374
-0.07962651 -0.23604693 -0.97148854
-0.061273154 -0.23605147 -0.9817026
-0.14777711 -0.23606806 -1.0317318
0.0019479367 -0.23606956 -1.0910606
-0.09475278 -0.23609428 -0.96890956
0.0010356378 -0.23609538 -1.0920602
-0.1481472 -0.23610091 -1.0273781
-0.2056355 -0.23610716 -1.1351265
-0.060329497 -0.23612553 -0.98444885
-0.08001135 -0.23613785 -0.9709702
-0.13838477 -0.2361432 -1.0046514
-0.10731047 -0.2361521 -0.9696665
-0.080508 -0.23615272 -0.9706785
-0.049082555 -0.23615782 -1.0848335
-0.09418671 -0.2361628 -0.96843505
-0.07970461 -0.2362095 -0.971963
-0.10733966 -0.23621854 -0.9697007
-0.08015117 -0.23622873 -0.97214884
-0.09454311 -0.23623177 -0.9688998
0.0012573845 -0.23623328 -1.0920391
0.0018002114 -0.2362355 -1.0920701
-0.080175884 -0.23626758 -0.9719104
-0.1484545 -0.23627904 -1.0293415
-0.10723474 -0.23629583 -0.97014654
-0.061821662 -0.23630156 -0.9806628
-0.13780124 -0.2363085 -1.006667
-0.08164401 -0.23631148 -0.9701126
-0.20593 -0.23632601 -1.136117
-0.13784085 -0.23633023 -1.004672
-0.10725936 -0.23633416 -0.9701425
-0.05106214 -0.23633698 -1.0820396
-0.0614985 -0.23633805 -0.9806681
-0.13869803 -0.23634584 -1.0065658
-0.09405952 -0.23635232 -0.96941906
-0.13764422 -0.23635308 -1.0046957
-0.13879336 -0.23636232 -1.0075434
-0.061278798 -0.23636496 -0.98066944
-0.179973 -0.2363902 -1.1214713
-0.14725764 -0.23639287 -1.021051
-0.094042026 -0.23641749 -0.9693978
-0.093923196 -0.23644875 -0.9693988
0.0016292139 -0.23645486 -1.0929868
-0.050162178 -0.2364605 -1.0810784
-0.034545638 -0.236469 -1.085396
-0.0613384 -0.23648311 -0.9816543
-0.1382822 -0.23649758 -1.0056056
-0.050123833 -0.23657416 -1.0810483
-0.094107404 -0.23658025 -0.96991235
-0.079937115 -0.23658231 -0.9733944
-0.0939842 -0.23659228 -0.9698742
-0.18009445 -0.23659866 -1.121527
-0.06119969 -0.23659956 -0.98162645
-0.08169097 -0.23660098 -0.97057307
-0.06134932 -0.23660406 -0.9816667
-0.08084592 -0.23660648 -0.9711168
-0.061225027 -0.2366272 -0.98162556
-0.1377647 -0.23668575 -1.0056723
-0.17972106 -0.23673013 -1.1227823
-0.05038265 -0.23674947 -1.0820076
-0.034139104 -0.23675345 -1.0864455
-0.08161188 -0.23680013 -0.97056144
-0.05006004 -0.23681073 -1.0820073
-0.18013449 -0.23682535 -1.1227772
-0.13772357 -0.23684444 -1.0066034
-0.034202848 -0.23684648 -1.0875626
-0.12038841 -0.23688075 -0.97966987
-0.13775055 -0.23689075 -1.0065972
-0.180494 -0.2368998 -1.1217453
-0.120269015 -0.23691082 -0.9795044
-0.22397545 -0.2369289 -1.1459606
-0.12046203 -0.23698343 -0.97948635
0.018350275 -0.237026 -1.1013693
-0.08091046 -0.23703954 -0.97106683
0.018463183 -0.23705459 -1.1012148
-0.18178408 -0.23705973 -1.1215731
-0.03468892 -0.23706159 -1.0873775
-0.03410263 -0.23707138 -1.0883633
-0.1802433 -0.23708938 -1.1234823
-0.15569815 -0.23709428 -1.0385822
-0.08089343 -0.23711684 -0.9710429
-0.03456571 -0.23714939 -1.0873877
-0.081462644 -0.23715338 -0.9715069
-0.019722898 -0.23715428 -1.0870144
-0.01923889 -0.23715656 -1.0870945
-0.03461798 -0.23716103 -1.0885527
-0.120416455 -0.23717332 -0.9804539
-0.12086426 -0.2371902 -0.98063725
-0.08114198 -0.23719168 -0.9715173
-0.12089307 -0.2371917 -0.9803785
-0.1801128 -0.23719269 -1.1245047
-0.12121426 -0.23721652 -0.97963023
-0.13806772 -0.23721889 -1.0085186
-0.12087891 -0.2372195 -0.98127806
-0.03432427 -0.23722525 -1.0883657
-0.019301381 -0.23722994 -1.0870969
-0.048871618 -0.23724025 -1.014844
-0.06665234 -0.23724331 -0.9756785
-0.019714603 -0.2372493 -1.086127
-0.019754007 -0.2372498 -1.0872865
-0.08080421 -0.23725232 -0.9715219
-0.04944556 -0.2372768 -1.0158147
-0.18180369 -0.23727822 -1.1215535
0.017016865 -0.23728126 -1.098517
-0.080828704 -0.23728439 -0.97151965
-0.120787434 -0.23728523 -0.98040104
-0.04957513 -0.23729004 -1.0177677
-0.22284125 -0.23730172 -1.1501064
-0.019351905 -0.23732108 -1.0882112
0.018431474 -0.23732801 -1.1021799
-0.1214244 -0.23734394 -0.9786228
0.017978534 -0.23734955 -1.1023718
-0.01983846 -0.23735856 -1.087078
-0.048699334 -0.23735969 -1.0158318
-0.066554755 -0.2373785 -0.9759958
-0.048420414 -0.23738226 -1.0197438
-0.066990815 -0.23742834 -0.976365
0.01826956 -0.23744297 -1.1021883
-0.06855342 -0.23745242 -0.97368056
0.017453346 -0.23745757 -1.1014123
-0.0810117 -0.23748486 -0.9725159
-0.0674524 -0.23749124 -0.9751923
-0.019460868 -0.23751639 -1.0880595
-0.18016072 -0.23752478 -1.1264614
-0.22433822 -0.23752537 -1.1478667
0.016140815 -0.23755872 -1.0975177
-0.18022552 -0.23756965 -1.126447
0.018011808 -0.23757611 -1.1021847
-0.14880127 -0.23757707 -1.0384506
-0.22275926 -0.23758182 -1.1520491
-0.06697331 -0.23759197 -0.9759624
-0.049258873 -0.23762149 -1.016757
-0.12248806 -0.237644 -0.980466
-0.06665034 -0.23765211 -0.9769498
-0.18110985 -0.23766056 -1.1236064
-0.067097075 -0.23767197 -0.97713643
0.018065153 -0.23767245 -1.1040342
0.016909475 -0.2376777 -1.0975219
-0.049619958 -0.23768637 -1.0187075
-0.04858054 -0.2376933 -1.0167586
0.01636296 -0.23769549 -1.0974947
0.016140545 -0.23769754 -1.1004479
-0.020241398 -0.23773311 -1.0882316
-0.02057643 -0.23773487 -1.0862862
-0.06859371 -0.23774193 -0.9741408
-0.2235174 -0.23774752 -1.150985
-0.048740394 -0.23774797 -1.0197102
-0.22352274 -0.2377636 -1.1489854
-0.15616378 -0.237768 -1.0404956
-0.066818506 -0.23781693 -0.9774256
-0.06714939 -0.2378318 -0.9773827
-0.18159461 -0.23788704 -1.1225297
0.016122868 -0.23789884 -1.1004308
-0.048761897 -0.23790024 -1.0177584
-0.22333245 -0.23790324 -1.152724
0.01710868 -0.23790586 -1.0984275
0.016985023 -0.23791324 -1.0984297
-0.021509333 -0.23791492 -1.0872353
-0.1819633 -0.23791736 -1.1234915
0.016977424 -0.2379298 -1.0994321
-0.22438554 -0.23798367 -1.1488545
-0.036388375 -0.23799746 -1.0894431
-0.020646773 -0.23800111 -1.0852811
-0.2232253 -0.23801066 -1.1537598
-0.035454817 -0.23803161 -1.089462
-0.12242354 -0.2380356 -0.98044556
-0.122605026 -0.23804575 -0.98140484
-0.06853728 -0.23805003 -0.9746037
-0.0678087 -0.23805667 -0.9761113
-0.0994563 -0.23806195 -0.9677818
-0.15627934 -0.23806597 -1.0424318
-0.09933564 -0.23809037 -0.967618
-0.048755426 -0.23809351 -1.018674
-0.09978206 -0.23810278 -0.9679672
-0.18091032 -0.23810527 -1.122578
0.01678153 -0.23810895 -1.099397
0.017107999 -0.23811021 -1.0993905
-0.021527097 -0.238116 -1.0872178
-0.18137294 -0.23811951 -1.1235284
-0.22385032 -0.23812157 -1.155524
-0.22380413 -0.23815022 -1.1546139
-0.19690058 -0.23815526 -1.1323681
-0.021416737 -0.23815708 -1.0862314
-0.12221156 -0.23817682 -0.98043895
-0.18113752 -0.23818024 -1.1235456
-0.036406282 -0.23819995 -1.0894253
-0.121888764 -0.2382182 -0.98046005
-0.12168764 -0.23822403 -0.980485
-0.035158906 -0.23822467 -1.0923707
-0.04309783 -0.23822637 -1.0809461
-0.19676897 -0.23822968 -1.1317565
-0.067786254 -0.23825169 -0.9746001
0.018014058 -0.2382636 -1.1060172
-0.09989425 -0.2382884 -0.9680264
-0.12154973 -0.23830464 -0.9804712
-0.22359854 -0.23830846 -1.1489252
-0.19650275 -0.2383252 -1.1327285
-0.22432177 -0.2383349 -1.149823
-0.02060994 -0.2383375 -1.0862037
-0.12169802 -0.23834461 -0.9805015
-0.04811544 -0.23835747 -1.0255142
-0.099462725 -0.23835975 -0.9685687
-0.2233321 -0.23836477 -1.155729
-0.197023 -0.2383653 -1.1324226
-0.18132171 -0.23837271 -1.1245112
-0.09979004 -0.23837772 -0.9680459
-0.06784962 -0.23837936 -0.9755834
-0.100275494 -0.2384023 -0.9677542
-0.068374716 -0.2384025 -0.9755473
-0.0043214317 -0.23840947 -1.0915792
-0.14760035 -0.2384183 -1.0384666
-0.08623991 -0.23842146 -0.9679832
-0.18115114 -0.23842539 -1.1245115
-0.15649717 -0.23842724 -1.0433637
-0.06805277 -0.23843966 -0.97555435
-0.19841748 -0.23844159 -1.1305317
-0.121768594 -0.23848096 -0.98142695
-0.09994899 -0.23848751 -0.9692319
-0.06771336 -0.23849162 -0.9755569
-0.021195905 -0.23849228 -1.0871716
-0.043333612 -0.23849858 -1.0808516
-0.035525933 -0.23849879 -1.0894147
-0.09964611 -0.2385061 -0.9690403
-0.18132131 -0.2385083 -1.124532
-0.020519128 -0.2385581 -1.0871633
-0.08615188 -0.23855875 -0.9682988
-0.12167366 -0.23856282 -0.98142374
-0.22412585 -0.2385663 -1.1508338
-0.0044213613 -0.2385748 -1.0926943
-0.043022692 -0.23858538 -1.0838813
-0.086593404 -0.23858684 -0.968656
-0.043012466 -0.23859052 -1.0839025
-0.0047979625 -0.23861946 -1.092467
-0.035488017 -0.23862644 -1.0893815
-0.06776122 -0.23862931 -0.97603387
-0.036310818 -0.23863357 -1.0903606
-0.2238877 -0.23863994 -1.1508566
-0.03539669 -0.23865983 -1.0893817
-0.19843729 -0.23866297 -1.1305116
-0.19704555 -0.23867056 -1.1334182
-0.19741979 -0.23868017 -1.1326432
-0.0043716966 -0.23868075 -1.0925418
-0.0048244908 -0.23870131 -1.0927323
-0.22376272 -0.23870865 -1.1508617
-0.06790769 -0.23871693 -0.97655267
-0.02084503 -0.23871863 -1.0881251
-0.020487595 -0.23873341 -1.0881205
-0.086679935 -0.23874038 -0.96895766
-0.08656749 -0.23875031 -0.968255
-0.10148206 -0.2387505 -0.96812814
-0.08705932 -0.23876722 -0.9679633
-0.22373918 -0.23877275 -1.157637
-0.00453282 -0.2387817 -1.0925472
-0.0053266543 -0.23879935 -1.0917645
-0.0056890924 -0.23880365 -1.0898225
-0.08626624 -0.23883097 -0.9692506
-0.100622475 -0.23885396 -0.96818733
-0.08673856 -0.23888227 -0.9691941
-0.11316436 -0.23890492 -0.97284573
-0.004788706 -0.2389082 -1.0925368
-0.020652924 -0.23891525 -1.089126
-0.19684553 -0.23893188 -1.1354445
-0.11304424 -0.23893432 -0.97268075
-0.22396934 -0.23896407 -1.1518126
-0.19707501 -0.23896524 -1.1354083
-0.036102124 -0.23897034 -1.0913029
-0.035749488 -0.2390023 -1.0913014
-0.006612691 -0.23900248 -1.0907807
-0.22410695 -0.23900387 -1.1518384
-0.004900944 -0.23901957 -1.0934898
-0.035391662 -0.23902652 -1.0912992
-0.113547035 -0.23903964 -0.9735004
-0.1977624 -0.23906405 -1.1325756
-0.043254517 -0.2390657 -1.0858421
-0.086476706 -0.2390948 -0.9702021
-0.11361347 -0.23911671 -0.9730801
-0.11328353 -0.23912095 -0.9731428
-0.08826055 -0.23913406 -0.96834815
-0.048136458 -0.23913917 -1.0281768
-0.101579055 -0.23915201 -0.9690662
-0.19706155 -0.23916247 -1.1363908
-0.04879657 -0.23917416 -1.0234615
-0.113184944 -0.23920113 -0.9736303
-0.006630317 -0.2392033 -1.0907632
-0.0433131 -0.2392087 -1.0858572
-0.08740013 -0.23922075 -0.9683991
-0.005643638 -0.23923832 -1.0887804
-0.10146017 -0.2392422 -0.96858037
-0.0065319734 -0.23924434 -1.0897728
-0.048277777 -0.23926061 -1.0291226
-0.0057598487 -0.23926245 -1.089777
-0.19862072 -0.23930599 -1.1324538
-0.04774156 -0.23930827 -1.0301163
-0.11355483 -0.23931795 -0.9735801
-0.113678336 -0.23932791 -0.97429276
-0.11403317 -0.23935083 -0.9732883
-0.04779769 -0.23937255 -1.0301154
-0.10125003 -0.23938026 -0.9685712
-0.03558393 -0.23941234 -1.0932616
-0.005722897 -0.23941728 -1.0897377
-0.0055990866 -0.2394174 -1.0897362
-0.10093011 -0.23942022 -0.9685868
-0.08831065 -0.2394252 -0.9688078
-0.19838859 -0.23946759 -1.132456
-0.04788475 -0.23948643 -1.0312339
-0.10076588 -0.23951137 -0.96909195
-0.08819828 -0.2395142 -0.9683186
-0.04234503 -0.23954438 -1.0847695
-0.10075125 -0.23957033 -0.9690718
-0.006297929 -0.23957855 -1.090711
-0.11429512 -0.23958325 -0.97276103
-0.0057512196 -0.23959081 -1.0907439
-0.19783671 -0.239595 -1.1325166
-0.005945162 -0.23960811 -1.0907018
-0.21363875 -0.23962952 -1.1407406
-0.048245203 -0.23968595 -1.0319341
-0.08766851 -0.23968978 -0.96832
-0.04197654 -0.23969322 -1.0847749
-0.19817741 -0.23970093 -1.1334592
-0.19769983 -0.23970143 -1.1325102
-0.1006712 -0.23971367 -0.96955144
-0.10081703 -0.23974074 -0.9695852
-0.10069498 -0.23975043 -0.9695478
-0.08802197 -0.23976092 -0.96878606
-0.19794057 -0.23976678 -1.1334786
-0.07324691 -0.23976818 -0.9724888
-0.043082975 -0.23978654 -1.0876807
-0.21528618 -0.23981857 -1.1394948
-0.19781573 -0.23982757 -1.133483
0.010639958 -0.23983099 -1.0971748
-0.087482855 -0.23983572 -0.96880317
-0.08753031 -0.23987469 -0.96930426
-0.07315238 -0.23990516 -0.97280526
-0.21354583 -0.23991534 -1.14268
-0.042809643 -0.23992962 -1.087655
-0.14979167 -0.2399309 -1.0479914
0.03358889 -0.2399422 -1.1135632
-0.07359242 -0.23994865 -0.9731703
-0.08739616 -0.23997495 -0.96928227
0.03404276 -0.23999843 -1.1144744
-0.08741985 -0.24000855 -0.9692795
-0.11539199 -0.2400092 -0.9750863
-0.07404284 -0.24001086 -0.971998
0.03415514 -0.24002685 -1.114321
0.010779588 -0.24005476 -1.097978
-0.07516169 -0.24006726 -0.9709589
0.009328436 -0.24007002 -1.0943153
-0.073674984 -0.2400903 -0.9734661
-0.08757506 -0.24010427 -0.9697964
-0.19813716 -0.24011019 -1.1344631
-0.073571816 -0.2401111 -0.9727679
-0.055600647 -0.2401139 -0.98394156
-0.21423915 -0.2401262 -1.1433239
0.010714909 -0.24013457 -1.0979834
0.010261949 -0.24015585 -1.0981748
-0.11523508 -0.24017736 -0.9741058
0.010268863 -0.24018033 -1.0970259
-0.073254615 -0.24018039 -0.9737581
-0.115408674 -0.24019365 -0.9750671
0.033923 -0.24023709 -1.1143391
-0.05448401 -0.24024121 -0.9859208
0.010552008 -0.24024469 -1.0979906
-0.073730886 -0.24024503 -0.9737087
-0.21410929 -0.24024655 -1.1433593
-0.11465604 -0.24024846 -0.9736389
0.0097443275 -0.24025808 -1.0972122
-0.2144695 -0.24026668 -1.1425841
0.032657593 -0.24026981 -1.1116338
-0.048056938 -0.2402719 -1.0339462
0.010309449 -0.24028277 -1.0988748
-0.21444358 -0.24029046 -1.1451962
0.03413425 -0.24030432 -1.1152874
-0.05371936 -0.24030934 -0.98783493
-0.11502382 -0.24031727 -0.97409815
-0.21399786 -0.24035586 -1.1443923
-0.075205125 -0.2403582 -0.9714183
-0.054098085 -0.24041718 -0.9878605
-0.21563567 -0.24041994 -1.1413994
0.03313699 -0.24044062 -1.1145258
-0.07345356 -0.24045236 -0.97471094
-0.2146503 -0.240463 -1.1415496
-0.11454439 -0.24046572 -0.9746218
0.0084380405 -0.24048315 -1.0962411
-0.02722462 -0.24048592 -1.0856947
-0.05553409 -0.24049833 -0.98390347
-0.055651594 -0.24051337 -0.9848795
-0.041973762 -0.24051487 -1.0886238
-0.053632207 -0.24055286 -0.98863125
-0.07512552 -0.24055722 -0.9714037
0.033706874 -0.24056773 -1.1152982
-0.0744052 -0.24057744 -0.97291434
-0.04214271 -0.24058239 -1.0886219
-0.11455525 -0.24058565 -0.97463745
-0.18812652 -0.24059364 -1.123986
-0.053683847 -0.24061339 -0.9886296
-0.1661842 -0.24061975 -1.0781994
0.009254073 -0.2406594 -1.0942774
-0.11445546 -0.24066 -0.97508454
-0.026857624 -0.24066445 -1.0868963
0.032259468 -0.24066743 -1.1101432
0.032538015 -0.24066816 -1.1106374
0.008420546 -0.2406841 -1.0962235
0.010219636 -0.24068426 -1.0998977
0.009418739 -0.24069035 -1.0942259
-0.026744211 -0.24069479 -1.0867381
0.0092943385 -0.24069518 -1.0942277
0.009386754 -0.24070355 -1.0942297
0.03198377 -0.2407068 -1.1106143
-0.21409187 -0.24071082 -1.1463584
0.0092834085 -0.24072221 -1.0952286
0.032580256 -0.24072461 -1.1105846
0.00850739 -0.24072576 -1.0952289
-0.054090884 -0.24072617 -0.9894865
-0.11462211 -0.24073206 -0.97556144
-0.18773147 -0.24075419 -1.1243404
0.031804845 -0.24076378 -1.1115978
-0.026807245 -0.24076664 -1.0867394
-0.0272167 -0.24077658 -1.0857661
-0.054060668 -0.24078247 -0.9886039
-0.027260158 -0.24078616 -1.0869286
-0.11452568 -0.24080995 -0.97555846
-0.05483031 -0.24081202 -0.98684144
0.032437958 -0.24081528 -1.1108248
0.032155782 -0.24082427 -1.1076093
-0.18814619 -0.24084806 -1.124333
-0.026968496 -0.24085404 -1.0867417
0.03382911 -0.240856 -1.1181079
0.008729788 -0.24086303 -1.0952066
-0.07440154 -0.24087231 -0.97188145
-0.21567793 -0.24087867 -1.1423833
-0.027347578 -0.24088773 -1.0867159
-0.16660953 -0.2408906 -1.0791061
0.031839777 -0.24089763 -1.1145327
-0.07444195 -0.24089924 -0.97238517
-0.05420286 -0.24091546 -0.9895476
0.032631367 -0.24091935 -1.1125486
-0.2143223 -0.24093851 -1.1473031
-0.04214265 -0.24097848 -1.0898306
-0.18839274 -0.24099426 -1.1250024
-0.07499647 -0.24102335 -0.97282565
-0.05486068 -0.24102643 -0.9858353
-0.21544403 -0.2410428 -1.1423874
-0.07467509 -0.2410611 -0.9728345
-0.055391666 -0.24106799 -0.9858014
0.009109345 -0.24108733 -1.0961518
0.032795917 -0.24109821 -1.1124989
-0.055066716 -0.24110389 -0.9858051
0.032762796 -0.24110624 -1.1125042
-0.18864453 -0.24110998 -1.1242595
-0.05389888 -0.24111159 -0.9905415
-0.07433452 -0.24111757 -0.9728382
-0.16562656 -0.24111997 -1.081061
-0.054844752 -0.24112861 -0.98580575
-0.054723803 -0.24114689 -0.9858057
-0.21488875 -0.24119143 -1.1424514
-0.12756544 -0.24119538 -0.9839709
-0.12809822 -0.24125288 -0.98388165
-0.07438486 -0.24125831 -0.9733145
-0.18994226 -0.24125892 -1.1240796
-0.12776265 -0.24126278 -0.98395056
-0.028076699 -0.24126527 -1.0859224
-0.027754676 -0.24127088 -1.0878699
-0.21524331 -0.24127704 -1.1433954
0.031866632 -0.24129361 -1.1154737
-0.18840943 -0.24130102 -1.125996
0.032477368 -0.24131247 -1.1134703
-0.21500506 -0.2413481 -1.1434171
-0.07453347 -0.24134971 -0.9738324
-0.054905094 -0.24136536 -0.9868031
-0.12778947 -0.24138297 -0.9850948
-0.054782037 -0.2413906 -0.98676157
-0.18828362 -0.24140915 -1.1270208
-0.21487941 -0.24141413 -1.143422
-0.029020356 -0.24143887 -1.0868669
-0.10623767 -0.24144019 -0.9684212
0.03380391 -0.24145003 -1.1200906
-0.12816912 -0.24147627 -0.985102
-0.1899617 -0.24147847 -1.1240591
-0.21491458 -0.24148159 -1.1434102
-0.12819605 -0.24150147 -0.98573947
-0.21505061 -0.24151792 -1.1434368
-0.18819757 -0.24156187 -1.1280173
-0.12809712 -0.24156637 -0.98486245
-0.09293925 -0.24157931 -0.9676657
-0.10615966 -0.24158005 -0.9687351
-0.10661389 -0.24158579 -0.96908
-0.16547574 -0.24159984 -1.0831747
-0.029037943 -0.24164039 -1.0868485
-0.10701566 -0.24166691 -0.9679101
-0.041775413 -0.24166873 -1.0928012
-0.12782577 -0.24167825 -0.9858766
-0.028146628 -0.24172895 -1.0858742
-0.093302466 -0.24174012 -0.96833336
-0.1062513 -0.24174024 -0.96920615
-0.106726326 -0.24177164 -0.96913826
-0.18840691 -0.24179699 -1.1289638
-0.092890576 -0.24182968 -0.9684587
-0.106621474 -0.24186216 -0.9691585
-0.028112434 -0.24186301 -1.0858392
-0.10674121 -0.24186923 -0.96986884
-0.18927446 -0.24187668 -1.1261169
-0.028928617 -0.24187736 -1.0868216
-0.09293967 -0.24188137 -0.96845275
-0.10643994 -0.24188414 -0.96967643
-0.093414515 -0.24192595 -0.96839225
-0.011973142 -0.2419335 -1.0913782
-0.011859736 -0.24196328 -1.0912211
-0.16684099 -0.24196577 -1.0849687
-0.012352364 -0.24196948 -1.0911455
-0.060281094 -0.24199566 -0.98081684
-0.093422785 -0.24201122 -0.96911615
-0.093309574 -0.2420143 -0.96841055
-0.093796216 -0.24203351 -0.9681189
-0.011923719 -0.24203826 -1.091224
-0.012376737 -0.24205852 -1.091414
-0.012349051 -0.24206114 -1.0902568
-0.042215344 -0.24206246 -1.0937392
-0.042268284 -0.24208204 -1.0949075
-0.20470941 -0.2420884 -1.1323476
-0.028026264 -0.24209091 -1.0867982
-0.19013363 -0.24212533 -1.125997
-0.041882638 -0.2421598 -1.0958381
-0.04236052 -0.24217038 -1.0946872
-0.16975793 -0.24218301 -1.090441
-0.060622253 -0.24219134 -0.9815069
-0.041770026 -0.24219137 -1.0956786
-0.20500857 -0.24220078 -1.1339177
-0.062211197 -0.24221215 -0.97882664
-0.028713748 -0.2422164 -1.0877621
-0.06020006 -0.24224232 -0.9816122
-0.028361715 -0.24224785 -1.0877589
-0.09319465 -0.24225546 -0.9698811
0.026069138 -0.24226056 -1.1074018
-0.18990222 -0.24228545 -1.1259979
0.026182022 -0.2422891 -1.1072478
-0.16862704 -0.24232021 -1.0850092
-0.18954141 -0.24232905 -1.1260368
-0.012080192 -0.2423326 -1.0921866
-0.23197848 -0.24234018 -1.1564716
-0.10745246 -0.2423418 -0.9692971
-0.013215748 -0.2423465 -1.0894574
-0.23235796 -0.24234663 -1.1587487
-0.012866321 -0.24234957 -1.0914015
-0.061109368 -0.24235612 -0.9808112
0.026115665 -0.24237241 -1.1072546
-0.0124621205 -0.24237254 -1.092167
-0.12893686 -0.24237338 -0.9879218
-0.20460533 -0.2423799 -1.1342839
-0.079831384 -0.2423855 -0.9697791
-0.09500518 -0.24239239 -0.9684973
-0.18930447 -0.2423924 -1.1260551
0.025662271 -0.24239434 -1.107447
-0.048811935 -0.24240007 -1.0062274
-0.18934754 -0.24240261 -1.1260573
-0.2051313 -0.24241109 -1.1339712
-0.14979637 -0.2424199 -1.0551004
-0.049383704 -0.24244371 -1.0071975
-0.16989952 -0.24245031 -1.0914774
-0.189179 -0.2424506 -1.1260592
-0.10840411 -0.24245176 -0.97019064
-0.028171977 -0.24245691 -1.0887594
-0.06062657 -0.24246359 -0.98158103
-0.0280093 -0.24246614 -1.088714
-0.049512204 -0.24247466 -1.0091516
-0.20651609 -0.24247618 -1.132074
-0.09414065 -0.24248773 -0.96855205
0.025950039 -0.24249214 -1.1072637
-0.18921274 -0.24251159 -1.1260493
0.0247085 -0.24251369 -1.1045543
-0.060290832 -0.24252081 -0.98256594
-0.10837696 -0.24252354 -0.96969277
-0.048632782 -0.24252698 -1.0072148
-0.20500238 -0.24252935 -1.1340052
-0.04201698 -0.2425375 -1.0966375
-0.01415011 -0.24253884 -1.0904111
-0.20536777 -0.24254042 -1.1332303
-0.06073806 -0.24254096 -0.9827531
-0.08018434 -0.24256143 -0.9704556
0.032263547 -0.24256504 -1.1155779
-0.16800357 -0.24258812 -1.085812
-0.060774468 -0.24259913 -0.9825236
-0.06226859 -0.24261412 -0.97976375
-0.07976953 -0.24263553 -0.9705729
-0.1679098 -0.24264531 -1.0867496
-0.048492063 -0.24265221 -1.0071837
-0.04952871 -0.24266174 -1.0091327
-0.18012446 -0.24266747 -1.1122724
-0.09505843 -0.24268559 -0.968956
-0.16814707 -0.24269274 -1.0860316
-0.20653573 -0.24269846 -1.132053
-0.12924851 -0.24271825 -0.9878687
-0.108297795 -0.24272431 -0.9696859
-0.1894913 -0.24273106 -1.1270399
-0.08065342 -0.24273445 -0.96976167
-0.01416756 -0.24274012 -1.0903927
-0.13699053 -0.24274285 -1.006591
-0.013257662 -0.24275635 -1.0884136
-0.094942525 -0.24277359 -0.96846753
-0.16919577 -0.24277505 -1.0878861
-0.10772335 -0.24279211 -0.9692165
-0.049197644 -0.24279399 -1.0081385
-0.04838466 -0.24279545 -1.0120836
-0.07984888 -0.24280116 -0.9710464
-0.060479388 -0.2428012 -0.9835201
-0.0132855 -0.24280731 -1.0894098
0.0030023865 -0.24280897 -1.093941
-0.08029574 -0.24282052 -0.9712323
-0.23335168 -0.24282323 -1.1542436
0.02572854 -0.24282326 -1.1082199
-0.20504372 -0.24283212 -1.1359973
-0.08019057 -0.24283414 -0.9705314
0.0031158968 -0.2428381 -1.0937849
-0.08032619 -0.24285898 -0.9709931
-0.13701583 -0.24286234 -1.007739
-0.10808698 -0.24286306 -0.9696772
-0.048669156 -0.24286504 -1.0081824
0.02520546 -0.24289271 -1.108406
-0.1368984 -0.24289475 -1.0075718
0.0030512523 -0.24291612 -1.0937893
-0.20571083 -0.24292341 -1.1331598
0.025793044 -0.24292591 -1.1100702
-0.06146123 -0.24292746 -0.9817294
0.0025982743 -0.24293712 -1.0939803
-0.048676424 -0.24294458 -1.0110917
-0.09441197 -0.24295035 -0.96847135
-0.12920682 -0.24295257 -0.9868557
-0.13740149 -0.24295586 -1.0077438
-0.13005768 -0.24297294 -0.987771
-0.013157983 -0.24297622 -1.0893729
-0.014057182 -0.2429773 -1.0903616
-0.2328354 -0.24298766 -1.1563059
0.023855854 -0.24299547 -1.1045142
-0.20496798 -0.2429965 -1.1369982
-0.08182825 -0.24300076 -0.96967286
-0.2322592 -0.2430033 -1.1603427
-0.10760156 -0.24300471 -0.9701996
-0.06143064 -0.24301374 -0.9797379
0.0028873768 -0.24302143 -1.0937954
0.0017118747 -0.24303244 -1.0910742
0.0020882236 -0.24303359 -1.0930147
-0.062227618 -0.24303576 -0.98070097
-0.107589856 -0.2430575 -0.9701806
0.002638851 -0.24306002 -1.0946767
-0.04866853 -0.2430652 -1.0090972
0.024634844 -0.24310388 -1.1045152
-0.013834535 -0.24311642 -1.0903417
-0.17032321 -0.2431301 -1.0902183
0.024079181 -0.24313189 -1.1044899
-0.2326724 -0.24313293 -1.1600472
-0.0948058 -0.24313408 -0.96941346
-0.061484125 -0.24313864 -0.9807223
-0.013283439 -0.24313869 -1.0903766
0.02387245 -0.24314147 -1.1074476
-0.09427652 -0.24314679 -0.9694551
0.0026302387 -0.24315 -1.0937867
0.024674123 -0.24315332 -1.1044635
-0.013120885 -0.24315658 -1.0903289
-0.23324671 -0.24315669 -1.1625745
-0.12951909 -0.2431573 -0.987788
-0.1375611 -0.24315979 -1.0084343
-0.062016685 -0.24317072 -0.9806869
-0.23329313 -0.24317878 -1.1552123
-0.13755824 -0.24318302 -1.009336
-0.08008534 -0.24318343 -0.97247595
-0.13035452 -0.24320187 -0.989687
-0.10751197 -0.24320455 -0.97066027
-0.061692957 -0.24320728 -0.9806924
-0.094265245 -0.24321169 -0.96943337
-0.20519148 -0.24322869 -1.1379431
-0.13044432 -0.24323212 -0.9906644
-0.10765588 -0.2432357 -0.9706927
-0.10753499 -0.24324296 -0.97065616
0.00078848 -0.24324383 -1.092037
-0.061349582 -0.2432549 -0.9806941
-0.09428798 -0.24326624 -0.9694691
-0.09416717 -0.24327824 -0.9694313
-0.12932235 -0.24329314 -0.98782945
-0.081874825 -0.24329348 -0.97013146
-0.081022084 -0.24330252 -0.9706754
-0.12995031 -0.24333473 -0.98872215
0.024838403 -0.24333958 -1.1054193
-0.013475937 -0.24334551 -1.0912929
-0.20673174 -0.24334884 -1.1339952
-0.23273318 -0.24334933 -1.15528
0.024806293 -0.24334936 -1.105424
-0.23319463 -0.24335286 -1.1602346
-0.094180755 -0.24335462 -0.9699126
-0.23321134 -0.2433573 -1.1628466
-0.18055527 -0.2433581 -1.1110053
0.024715338 -0.243362 -1.1064254
-0.13717452 -0.24337056 -1.0094777
-0.08176505 -0.24338081 -0.96963954
-0.23274486 -0.24343288 -1.1620489
0.0007711685 -0.24344447 -1.0920186
0.0016565855 -0.24345215 -1.0900283
0.0025423996 -0.243464 -1.0956986
0.0017506726 -0.24346481 -1.09003
-0.1375625 -0.24347325 -1.0094169
0.0016422988 -0.24348962 -1.0910275
-0.06141358 -0.24350318 -0.98164916
-0.20649882 -0.24351127 -1.133998
-0.12053291 -0.24351785 -0.9787477
0.02575477 -0.24352494 -1.1120516
0.023892885 -0.24353966 -1.1083877
-0.12041308 -0.24354799 -0.97858196
-0.20613596 -0.24355604 -1.1340412
-0.23333617 -0.24357188 -1.1628984
-0.12094522 -0.24361311 -0.978497
-0.12061106 -0.24362017 -0.97856295
-0.20594156 -0.24364932 -1.1340606
-0.23303884 -0.24367909 -1.1572123
0.00088208314 -0.24368118 -1.0919834
-0.12938717 -0.24368691 -0.98971534
-0.20577183 -0.24368785 -1.1340663
-0.06157574 -0.24370074 -0.982646
-0.081043795 -0.24370079 -0.97012043
-0.08108466 -0.24373548 -0.97062284
0.024551472 -0.24374767 -1.1073471
-0.06677337 -0.24374965 -0.9742811
-0.2329121 -0.24375059 -1.1572177
-0.20580582 -0.24375296 -1.1340553
-0.17807971 -0.24377343 -1.1134617
-0.08129444 -0.24377869 -0.9705942
-0.2334564 -0.24379133 -1.158151
-0.04808204 -0.2438114 -1.01785
-0.034713075 -0.24381144 -1.0843754
-0.12056186 -0.2438168 -0.97953004
-0.20605537 -0.24381687 -1.1350237
0.0011046024 -0.24381888 -1.0919617
0.0016573856 -0.24382146 -1.0919929
-0.121009946 -0.2438338 -0.97971356
0.0018198164 -0.24384807 -1.0919427
-0.08164566 -0.24385205 -0.9710616
-0.12961465 -0.24386403 -0.99067044
-0.12103055 -0.24386914 -0.9803538
-0.080975436 -0.2438717 -0.9705968
-0.12093801 -0.24392845 -0.9794761
-0.067118354 -0.24394074 -0.9749663
-0.12951705 -0.24395028 -0.990667
-0.08098254 -0.2439513 -0.9710771
-0.18014546 -0.24395278 -1.1204201
-0.23303509 -0.2439876 -1.1649836
-0.066698484 -0.24399948 -0.9750756
-0.23312451 -0.24401143 -1.1581676
0.0014768755 -0.244047 -1.0929087
-0.06870779 -0.24405617 -0.9727592
-0.12145992 -0.24407525 -0.97966266
-0.081156164 -0.24407864 -0.9715918
-0.06759854 -0.24410534 -0.974271
-0.06677224 -0.244168 -0.97555023
-0.20625505 -0.2441708 -1.1360066
-0.04805104 -0.24418388 -1.0185952
-0.067219235 -0.244188 -0.975737
-0.121670805 -0.24419604 -0.9786539
-0.06712337 -0.24421255 -0.97504056
-0.23343784 -0.24424358 -1.1591552
-0.17988585 -0.24429967 -1.1217306
-0.03431306 -0.24430346 -1.0863819
-0.068747714 -0.2443488 -0.97321767
-0.18040487 -0.24435636 -1.1214358
-0.048734356 -0.24439259 -1.0148368
-0.1803005 -0.2443949 -1.1217248
-0.23345739 -0.24440044 -1.1668897
-0.034375902 -0.24440297 -1.087499
-0.04771223 -0.2444317 -1.0205327
-0.066967376 -0.2444472 -0.9765031
-0.06730058 -0.24446204 -0.97646
-0.18066108 -0.24446246 -1.1206919
-0.13853249 -0.24449207 -1.0134361
-0.034732427 -0.24450485 -1.0863636
-0.12274348 -0.24450862 -0.980496
-0.019890629 -0.24450967 -1.085992
-0.04821907 -0.24452595 -1.0204972
-0.04768251 -0.24458148 -1.0214909
-0.0348705 -0.24461782 -1.0873122
-0.18196085 -0.24462168 -1.1205181
-0.034275413 -0.2446345 -1.0882984
-0.06869113 -0.24465984 -0.97367775
-0.180415 -0.244665 -1.1224275
-0.067955606 -0.2446768 -0.97518694
-0.12257814 -0.2446778 -0.9795151
-0.019512197 -0.2446834 -1.0871882
-0.12276001 -0.24469471 -0.9804758
-0.15147625 -0.2447007 -1.0629314
-0.047893662 -0.24471578 -1.021489
-0.034792632 -0.2447241 -1.0884875
-0.06791371 -0.24474968 -0.97319615
-0.04782676 -0.24476643 -1.0226078
-0.034502916 -0.24478796 -1.0882998
-0.18197995 -0.24484001 -1.120497
-0.1220425 -0.24486025 -0.9795292
0.018367112 -0.24490428 -1.1020948
-0.019398358 -0.24491437 -1.0879886
-0.1804205 -0.2449699 -1.1244112
-0.048187308 -0.2449719 -1.0233071
-0.019462448 -0.24498765 -1.0879904
-0.0679945 -0.24499597 -0.9746569
-0.019882364 -0.2450006 -1.0870199
-0.10005142 -0.24500613 -0.9684888
-0.019915551 -0.24500762 -1.0881801
-0.06852814 -0.24501857 -0.9746199
-0.22449857 -0.24502905 -1.1468083
-0.12246532 -0.24504144 -0.98046464
-0.0682059 -0.2450558 -0.9746272
0.018286759 -0.2450738 -1.1032075
-0.099756844 -0.2450752 -0.9687824
-0.019626448 -0.24507935 -1.0879934
-0.12193237 -0.24508922 -0.98051167
-0.09963588 -0.2451038 -0.9686182
-0.06786238 -0.24510802 -0.97463
-0.020007743 -0.24511613 -1.0879705
-0.1803256 -0.2451203 -1.1254057
-0.06788521 -0.24513711 -0.97462857
-0.18039176 -0.24516495 -1.1253908
0.018333642 -0.2451841 -1.1030585
0.017880226 -0.24520575 -1.1032505
-0.12194276 -0.24520971 -0.98052734
-0.08644864 -0.24521288 -0.9680269
-0.18127795 -0.24523567 -1.1225488
-0.1708738 -0.24524961 -1.1079649
-0.086776614 -0.24527153 -0.96822035
-0.020740228 -0.2452849 -1.0862182
-0.10053973 -0.24530299 -0.96827424
-0.100203566 -0.24530472 -0.9690249
-0.13891506 -0.24531065 -1.013323
0.016948007 -0.24531066 -1.1003526
-0.1397838 -0.24531518 -1.0142357
-0.0680528 -0.24533984 -0.9756245
-0.122019716 -0.24535231 -0.98145217
-0.0863603 -0.24535355 -0.9683417
-0.14952311 -0.2453746 -1.0348539
-0.099764585 -0.24537957 -0.96956754
-0.121897705 -0.2453923 -0.9814542
-0.10009809 -0.24539424 -0.9690439
-0.10021181 -0.24539794 -0.9697523
0.017907063 -0.2454323 -1.1030618
-0.12192096 -0.24543436 -0.981449
-0.14964522 -0.24543472 -1.0369309
-0.1817701 -0.24545471 -1.121469
-0.13918664 -0.24549071 -1.0162542
-0.18213959 -0.24549179 -1.1224304
0.018199503 -0.2454974 -1.1040243
-0.02040502 -0.24549748 -1.0891223
-0.1392345 -0.24550286 -1.0142564
0.017385498 -0.24550597 -1.1032478
-0.08644314 -0.24551927 -0.9688142
-0.14010045 -0.2455272 -1.0161512
-0.09995226 -0.24552892 -0.9700382
0.016028877 -0.24554063 -1.1013248
0.016062323 -0.24558236 -1.0993507
-0.1717312 -0.24559292 -1.1107814
-0.03563212 -0.2456008 -1.0893916
-0.035322133 -0.24561255 -1.0913416
-0.22352083 -0.2456199 -1.1519173
-0.22486112 -0.24563877 -1.148711
-0.13903514 -0.24565062 -1.0142977
-0.086923145 -0.2456512 -0.9694777
-0.0868162 -0.24565771 -0.9687741
-0.08730401 -0.24567153 -0.9684825
-0.021684397 -0.2456725 -1.0881252
-0.1810789 -0.24567337 -1.1215177
-0.13967927 -0.24567671 -1.0151883
-0.08695523 -0.24568315 -0.9692349
-0.18154825 -0.24569377 -1.1224669
0.016285509 -0.24571909 -1.0993272
-0.04317255 -0.24571945 -1.081909
0.017990835 -0.24573942 -1.1058694
-0.020808976 -0.24574661 -1.086169
-0.18131052 -0.24575469 -1.1224843
-0.14030942 -0.24576333 -1.0180877
-0.19651884 -0.24576467 -1.130706
0.0168786 -0.24576719 -1.100306
-0.036589883 -0.24576744 -1.0903317
-0.19707465 -0.24578907 -1.1313069
-0.17140436 -0.24580805 -1.1075202
-0.18118405 -0.2458104 -1.1224883
-0.043506574 -0.2458155 -1.0798373
-0.19693625 -0.2458575 -1.1306959
-0.1984438 -0.24586675 -1.128507
-0.10092763 -0.24587084 -0.96918267
-0.021701671 -0.24587382 -1.0881062
-0.020778483 -0.24588734 -1.0861322
0.016875146 -0.2459009 -1.1003121
-0.17128299 -0.24590361 -1.1101321
-0.22343706 -0.24591276 -1.153859
-0.043183517 -0.24592759 -1.0828881
0.016042884 -0.2459412 -1.102264
0.016911367 -0.24594343 -1.1002616
0.017006515 -0.24594755 -1.1002638
-0.18148771 -0.24595396 -1.1234497
-0.0366073 -0.24597019 -1.0903124
-0.10187735 -0.24599244 -0.9700801
-0.035656277 -0.24599372 -1.0883492
-0.1971971 -0.24599914 -1.1313602
-0.08672382 -0.24601501 -0.9707202
-0.087612554 -0.24601524 -0.9684378
-0.13911022 -0.24603051 -1.0161865
-0.08851538 -0.24604112 -0.96886533
-0.10185314 -0.24606209 -0.96958184
-0.03570105 -0.24606805 -1.0893413
-0.22420602 -0.2460758 -1.1507922
-0.19846308 -0.24608777 -1.1284854
-0.22490782 -0.2461039 -1.1496952
-0.17140374 -0.24611062 -1.1101866
-0.02159169 -0.24611075 -1.0880758
-0.020683596 -0.24611452 -1.0870908
-0.19743772 -0.24611901 -1.1306182
0.017069783 -0.24613538 -1.1012174
0.01670491 -0.24614552 -1.1012278
0.01790733 -0.24614552 -1.1068914
-0.043403823 -0.24621218 -1.0838671
-0.088531345 -0.24622262 -0.96884525
-0.035574522 -0.24622895 -1.0893077
-0.22401959 -0.24624054 -1.1545305
-0.17102164 -0.24624442 -1.111436
-0.021368792 -0.24625038 -1.0880566
-0.07336423 -0.24625354 -0.9710942
-0.10177373 -0.24626239 -0.969572
-0.22436978 -0.24626377 -1.1537553
-0.004520503 -0.24627659 -1.0924714
-0.021016302 -0.24628124 -1.0880516
-0.18162526 -0.24628548 -1.1244308
-0.22436884 -0.2462864 -1.1563672
-0.13924776 -0.24629334 -1.017138
-0.02065401 -0.24629627 -1.0880471
-0.004973703 -0.24629727 -1.092662
-0.22432262 -0.24630891 -1.1554565
-0.19721872 -0.24631092 -1.1323544
-0.10120201 -0.24632727 -0.9691003
-0.22390999 -0.24635427 -1.1555665
-0.043462984 -0.24635479 -1.0838811
-0.0045558857 -0.24637176 -1.0935826
-0.101562746 -0.24640037 -0.9695623
-0.0044422783 -0.24640134 -1.093426
-0.004941896 -0.24641609 -1.0933548
-0.13945791 -0.24641767 -1.0180997
-0.17140873 -0.2464204 -1.1111764
-0.08845205 -0.2464217 -0.96883196
-0.11355527 -0.24642988 -0.97559
-0.0737162 -0.24644005 -0.9717744
-0.22484322 -0.24646151 -1.1506621
-0.004943826 -0.24650392 -1.092465
-0.11372154 -0.24651273 -0.9762336
-0.10106921 -0.24653524 -0.9700836
-0.053799253 -0.24656533 -0.9849924
-0.05572191 -0.24656549 -0.9820547
-0.004673262 -0.24657863 -1.0934341
-0.0058280476 -0.2465816 -1.0907085
-0.03593428 -0.24658407 -1.0912254
-0.17200564 -0.24658479 -1.1093776
-0.19701166 -0.24658567 -1.1343807
-0.0054647056 -0.24659012 -1.092651
-0.053678624 -0.2465923 -0.9848318
-0.08792081 -0.24659722 -0.9688331
-0.03557159 -0.24660854 -1.0912235
-0.19724686 -0.24661854 -1.1343435
-0.07332205 -0.24661964 -0.97236556
-0.22427955 -0.24662161 -1.1507286
-0.005057414 -0.24662165 -1.0934176
-0.11411529 -0.2466532 -0.97688663
-0.10096091 -0.24666429 -0.9700606
-0.08827505 -0.24667153 -0.9692984
-0.07337278 -0.24667528 -0.9723614
-0.04249432 -0.24668361 -1.0827928
-0.020815663 -0.24668665 -1.0900093
-0.07381983 -0.24669504 -0.97254777
-0.1979318 -0.24669744 -1.1315099
-0.054598127 -0.24670656 -0.98403347
-0.10110072 -0.24670708 -0.97054094
-0.07372144 -0.24671225 -0.9718487
-0.07421522 -0.24671859 -0.97155714
-0.22401015 -0.24672186 -1.1575351
-0.10097857 -0.2467406 -0.97054225
-0.08773296 -0.24674657 -0.96931595
-0.075342916 -0.24676792 -0.97051746
-0.006762212 -0.24678649 -1.0916666
-0.08777425 -0.24678904 -0.9698171
-0.08763288 -0.24680948 -0.9693141
-0.036539968 -0.246814 -1.0931604
-0.1972292 -0.24682254 -1.1353257
-0.04212532 -0.24683237 -1.0827974
-0.11422829 -0.24684033 -0.97694373
-0.113893524 -0.24684466 -0.97700685
-0.172864 -0.2468455 -1.1092621
-0.17214598 -0.24684562 -1.1083345
-0.07388157 -0.2468526 -0.9727891
-0.101160236 -0.24688108 -0.97105354
-0.22481729 -0.24689154 -1.1526346
-0.054211773 -0.24689603 -0.985973
-0.1719094 -0.24690403 -1.1083508
-0.19841416 -0.24690428 -1.1304247
-0.19879837 -0.24693868 -1.1313846
0.034598384 -0.24694411 -1.1123662
-0.2242495 -0.24695137 -1.158478
-0.036316007 -0.24695554 -1.093143
-0.22457623 -0.24696547 -1.1526577
-0.05577256 -0.2469711 -0.98299044
-0.005878959 -0.24699327 -1.0896622
-0.054176144 -0.24699469 -0.9866418
-0.087677374 -0.24700238 -0.97027254
-0.17181446 -0.24701357 -1.1083456
-0.08781906 -0.24702182 -0.970308
-0.22444853 -0.24703437 -1.152663
-0.0058966186 -0.24704082 -1.0906597
-0.11383607 -0.24704087 -0.9779727
-0.054145116 -0.24704412 -0.9857586
-0.114284135 -0.2470583 -0.9781566
-0.07538599 -0.2470621 -0.97097516
-0.073602065 -0.24706644 -0.9737907
-0.1714345 -0.24707758 -1.1151094
-0.04296012 -0.24708883 -1.0856764
-0.05379744 -0.24709858 -0.98674107
-0.19771893 -0.24713847 -1.1304793
-0.19820306 -0.24714422 -1.1314273
-0.17191435 -0.24715643 -1.109315
-0.11421424 -0.2471579 -0.97792095
-0.054288022 -0.2471837 -0.9867019
-0.0067678434 -0.24718945 -1.0926052
-0.19796404 -0.24721026 -1.131447
-0.005770474 -0.2472124 -1.0906212
-0.006668312 -0.2472247 -1.0916129
-0.19800384 -0.24722804 -1.1314478
-0.19783688 -0.2472711 -1.1314515
-0.07457847 -0.24729136 -0.9724705
-0.22465344 -0.24729647 -1.1536129
-0.1722077 -0.24729854 -1.110278
-0.11473433 -0.24730077 -0.97810733
-0.17163078 -0.24732177 -1.1160561
-0.22478828 -0.24733655 -1.1536382
-0.006445275 -0.24736306 -1.0915918
-0.07533312 -0.24737439 -0.97143584
-0.053982843 -0.24738634 -0.98769516
-0.006091648 -0.24739267 -1.0915829
-0.055723954 -0.24739681 -0.98392385
-0.0057278387 -0.24739785 -1.0915762
-0.042100362 -0.24747631 -1.0856844
-0.054978866 -0.2475066 -0.9859067
0.033878524 -0.24754205 -1.1134263
-0.19815375 -0.24756008 -1.1324302
0.03399139 -0.24757057 -1.1132727
-0.0058756866 -0.2475779 -1.0925826
-0.074578926 -0.2475794 -0.9714353
-0.054963566 -0.24759217 -0.98391336
-0.07461319 -0.24760981 -0.9719391
-0.035800844 -0.24761261 -1.0960584
-0.17233984 -0.24763204 -1.1112577
0.033923224 -0.24765567 -1.1132798
-0.07482785 -0.24766107 -0.9719096
0.03346931 -0.24767797 -1.1134728
-0.21563058 -0.24769184 -1.1393851
-0.2141342 -0.24770486 -1.1415958
-0.055007122 -0.24771425 -0.98489887
-0.07448316 -0.24771778 -0.9719136
-0.049347322 -0.24772793 -0.99955046
-0.07517656 -0.24773663 -0.97237825
-0.042289875 -0.24774744 -1.0866401
-0.0745052 -0.24774839 -0.97191167
-0.055546742 -0.24775526 -0.98486406
-0.049475033 -0.24777606 -1.0015059
0.010124958 -0.24779087 -1.0980989
-0.0552215 -0.24779125 -0.984868
-0.21387663 -0.24780893 -1.1425724
-0.054874424 -0.24783452 -0.9848688
-0.027392203 -0.24783483 -1.084673
0.010557183 -0.2478622 -1.0990157
-0.11513752 -0.24786976 -0.9790122
0.010670723 -0.24789126 -1.0988601
-0.04831983 -0.24789795 -1.0034803
-0.04227 -0.24794574 -1.0868893
0.010604429 -0.24797098 -1.0988648
-0.11610859 -0.24797188 -0.9799013
0.033799175 -0.24797902 -1.1142473
0.03253574 -0.24799229 -1.1115409
-0.21461958 -0.24800844 -1.1441233
-0.027017774 -0.2480203 -1.0858743
-0.04861016 -0.24803767 -1.0024875
-0.055051766 -0.24805947 -0.985865
-0.07470498 -0.24806988 -0.9733842
0.010436839 -0.24808097 -1.0988716
0.0092403265 -0.24808285 -1.0961536
-0.054931145 -0.24808472 -0.9858237
-0.11532036 -0.2480916 -0.97797275
-0.04883236 -0.24811903 -1.0004925
0.010190629 -0.24812523 -1.0997559
-0.027383273 -0.24812558 -1.0847428
-0.11594928 -0.24813648 -0.9789175
-0.027421482 -0.24814203 -1.0859058
-0.11612482 -0.24815743 -0.9798805
-0.21480341 -0.24816014 -1.1424736
-0.18829942 -0.24817565 -1.1229321
-0.049519237 -0.2481821 -1.0024418
0.034630485 -0.24820724 -1.119088
0.010177179 -0.24821204 -1.0988646
-0.042735822 -0.24821466 -1.0477164
-0.21474308 -0.24822041 -1.1441753
-0.10646614 -0.24823773 -0.96846443
-0.027515309 -0.24824315 -1.0856923
-0.04864585 -0.24825321 -1.0014796
-0.02691039 -0.24825478 -1.0866736
-0.21433462 -0.24826206 -1.1442813
-0.10634507 -0.24826673 -0.96829957
-0.10680699 -0.24827515 -0.9686439
-0.11573662 -0.24827664 -0.97890925
0.009657229 -0.24828991 -1.0990504
-0.04918956 -0.24830481 -1.0014459
-0.21597984 -0.24830621 -1.1412863
0.008313753 -0.24830654 -1.097121
-0.115199454 -0.24831586 -0.97895545
0.033580985 -0.24831627 -1.1152046
-0.026974881 -0.24832648 -1.0866743
0.010075206 -0.24833192 -1.0998191
-0.21461177 -0.24834101 -1.1442102
-0.21498504 -0.24834977 -1.1414374
-0.09315457 -0.24837385 -0.967709
-0.048655562 -0.24837616 -1.0014899
-0.048509814 -0.2483781 -1.0014482
0.033061013 -0.24838157 -1.1153903
-0.02714054 -0.24841365 -1.0866762
0.033656508 -0.24842507 -1.1170558
-0.093488984 -0.24842638 -0.9678976
-0.18831249 -0.24843056 -1.1232787
-0.04228169 -0.24844326 -1.0879184
-0.18982877 -0.24844342 -1.1211001
-0.041878086 -0.24845174 -1.0888987
-0.10724683 -0.24846116 -0.9679513
0.009176026 -0.24850628 -1.0951048
-0.09306946 -0.24851647 -0.96802306
-0.18804018 -0.24853484 -1.124248
0.009171934 -0.24853992 -1.0961053
-0.106480874 -0.24854425 -0.96924764
-0.04242714 -0.24855796 -1.088866
-0.10696267 -0.24857536 -0.969179
-0.18856579 -0.24858277 -1.1239463
-0.048660915 -0.248583 -1.002404
0.032463662 -0.24858373 -1.1114991
-0.02823977 -0.24861379 -1.0848963
-0.21442278 -0.24863048 -1.1462467
-0.027917333 -0.24863283 -1.0868444
0.032595083 -0.2486355 -1.1114494
0.032498796 -0.24864009 -1.1114465
-0.060426023 -0.24865219 -0.97989196
-0.115302786 -0.24866231 -0.9799264
-0.1898477 -0.24866243 -1.1210781
-0.10685674 -0.24866602 -0.9691987
-0.10697122 -0.24867655 -0.96990997
-0.09315609 -0.2486824 -0.9684944
0.03171879 -0.2486857 -1.1124588
-0.106673546 -0.24869116 -0.969717
-0.18881205 -0.24869208 -1.1232034
0.009328473 -0.24870396 -1.0960605
0.008321332 -0.2487099 -1.0980593
-0.09397787 -0.24871677 -0.96768165
0.009298269 -0.24871723 -1.0960642
-0.09363772 -0.2487267 -0.96843314
-0.047993287 -0.24873495 -1.0082865
0.008409365 -0.24874575 -1.0970627
-0.04196599 -0.2487589 -1.0909755
-0.21602175 -0.24877146 -1.1422666
-0.029192286 -0.24879365 -1.0858407
-0.11537651 -0.24881434 -0.98084986
-0.09353169 -0.24881518 -0.968451
-0.09363965 -0.24881557 -0.96915746
0.031943433 -0.24882182 -1.1124332
0.032671537 -0.24882706 -1.1124016
0.031751983 -0.24883838 -1.1153957
0.0325567 -0.24884787 -1.1134093
-0.11525338 -0.24885221 -0.98085177
-0.21465488 -0.24886446 -1.14719
0.009193742 -0.24887562 -1.0970691
